7.23316 -1.99521 5.45825 -0.151148 -0.694467 -0.70347
6.14262 -2.20965 5.91182 -0.185827 -0.683348 -0.706048
5.6866 -2.06533 5.97054 -0.347429 -0.571043 -0.743776
5.2856 -2.49607 6.49839 -0.416007 -0.558089 -0.717965
4.60867 -2.37712 7.14485 -0.852528 -0.213723 -0.476989
4.90252 -2.40397 6.72944 -0.727471 -0.310501 -0.611862
4.74093 -1.99263 6.78719 -0.879158 -0.0974984 -0.466449
4.88404 -2.06333 6.59737 -0.794819 -0.148835 -0.588312
8.05641 10.3278 3.12443 -0.967585 0.220516 -0.123093
7.97806 9.91229 2.97925 -0.970116 0.224845 -0.0912144
7.86427 9.5934 3.39486 -0.973774 0.198838 -0.110578
4.57115 -2.78329 7.38034 -0.868659 -0.233669 -0.436841
4.49231 -2.73723 8.73168 -0.962886 0.0073166 0.269811
4.55336 -2.12458 8.85471 -0.926633 0.0957441 0.363572
4.65467 -3.24258 9.0222 -0.887526 -0.131699 0.441535
4.96754 -4.56474 8.72242 -0.799157 -0.601092 0.00603974
5.26729 -4.82466 8.47588 -0.648448 -0.748002 -0.14145
5.68566 -5.07214 8.4819 -0.363436 -0.792304 -0.49007
6.04645 -5.16118 8.39993 -0.282478 -0.854177 -0.436564
6.07283 -5.26421 8.61772 -0.249847 -0.94656 -0.203961
6.32628 -5.31753 8.69378 -0.199473 -0.963148 -0.180433
6.46985 -5.34757 8.79926 -0.132901 -0.973963 0.183665
7.14219 -5.37147 8.8365 -0.0273212 -0.897189 0.440801
6.76641 -5.35347 8.83432 -0.0474032 -0.909689 0.412576
6.98198 -5.40712 8.72457 -0.0590841 -0.982409 0.17715
7.30728 -5.23039 9.07886 -0.0154173 -0.781597 0.623594
8.25253 -5.27233 8.99772 0.0620974 -0.779969 0.62273
7.57187 -5.15748 9.15468 0.0268133 -0.707736 0.705968
7.61991 -5.30085 8.98527 0.00847014 -0.843284 0.537402
7.5384 -5.02525 9.26546 0.0300854 -0.60423 0.796242
7.71274 -4.78086 9.40525 0.0551897 -0.472714 0.879486
8.08239 -4.7481 9.39222 0.0814063 -0.459099 0.884647
7.68954 -4.39708 9.57607 0.0673876 -0.36601 0.928168
8.25838 -5.13047 9.13908 0.0820468 -0.594453 0.799934
8.16396 -3.93923 9.69432 0.15413 -0.296491 0.942516
8.72097 -3.89333 9.56931 0.262973 -0.240018 0.934471
9.27894 -4.10465 9.34117 0.277567 -0.275322 0.92041
9.95306 -3.80239 9.20996 0.356741 -0.265365 0.895722
10.2277 -3.63303 9.14262 0.401633 -0.273934 0.873871
10.0175 -4.01888 9.11228 0.40513 -0.327912 0.85343
9.90146 -4.32839 9.03462 0.389644 -0.38747 0.83549
10.0987 -4.2958 8.94644 0.456238 -0.422665 0.783072
10.3664 -3.95919 8.95705 0.488484 -0.353672 0.797684
10.2889 -4.18655 8.88457 0.522701 -0.451396 0.723205
10.1034 -4.58412 8.75712 0.510748 -0.595007 0.620566
10.4435 -4.22396 8.7421 0.575434 -0.461464 0.675224
10.6477 -3.86424 8.78994 0.619902 -0.395593 0.677664
10.4178 -3.61198 9.04984 0.467471 -0.255975 0.846137
10.1897 -3.38934 9.23186 0.393771 -0.215943 0.893484
10.1493 -2.78763 9.37935 0.353417 -0.18169 0.917652
10.5305 -2.62481 9.22215 0.475782 -0.165056 0.863938
10.5828 -3.0634 9.11275 0.479658 -0.201369 0.854037
10.6931 -2.59587 9.13205 0.535239 -0.154694 0.830415
10.7998 -3.0191 8.98202 0.586711 -0.177452 0.790115
11.3143 -3.19593 8.10377 0.930891 -0.284078 0.229655
11.3752 -2.60269 8.46732 0.920306 -0.23887 0.309804
11.2708 -3.00317 8.41668 0.891152 -0.290506 0.348505
11.4412 -2.93285 7.82543 0.965375 -0.221094 0.138452
11.4461 -2.4749 8.31833 0.962135 -0.171537 0.211829
11.396 -2.49439 8.45696 0.885985 -0.109582 0.450581
11.4833 -1.873 8.4249 0.879586 -0.0779079 0.469316
11.5153 -1.42862 8.42463 0.887615 -0.0409305 0.458765
11.6586 -1.27579 7.91924 0.999515 0.0279638 0.0137155
11.5941 -1.3308 7.36077 0.985326 0.0290555 -0.16819
11.5037 -1.70364 6.91057 0.957367 -0.045577 -0.285255
11.2756 -1.35117 6.3347 0.844871 -0.099432 -0.525649
11.367 -1.6577 6.5638 0.868474 -0.159921 -0.469232
11.0171 -1.13987 5.93863 0.751132 -0.178838 -0.635466
10.9752 -0.821449 5.82557 0.804223 -0.0745435 -0.589634
10.7715 -0.956302 5.62474 0.672901 -0.229274 -0.703305
11.1711 -1.61536 6.27838 0.755184 -0.22951 -0.614022
11.1228 -1.99373 6.38308 0.672234 -0.350679 -0.652017
10.9313 -1.52706 5.98262 0.652751 -0.288959 -0.700299
10.9331 -1.91012 6.17132 0.562761 -0.399853 -0.723476
10.5199 -1.85205 5.87918 0.390711 -0.459489 -0.797631
10.5826 -1.96544 5.97382 0.393465 -0.487026 -0.779738
10.7724 -2.26802 6.27013 0.471261 -0.466695 -0.748404
10.5944 -2.40866 6.27307 0.330921 -0.542667 -0.772013
10.3264 -1.93134 5.84723 0.279022 -0.538212 -0.795282
10.0591 -1.71286 5.623 0.232064 -0.517051 -0.823896
10.1321 -2.21926 6.01111 0.0840058 -0.62255 -0.778058
10.1436 -1.85 5.73649 0.197926 -0.575647 -0.793383
10.2489 -2.41859 6.18535 0.086133 -0.619212 -0.780486
9.90187 -2.14153 5.95458 -0.0245417 -0.661361 -0.749666
9.17472 -1.69163 5.45169 0.2001 -0.663818 -0.720628
9.02465 -2.02536 5.74116 0.23114 -0.677249 -0.698504
9.40265 -2.08228 5.90795 0.168576 -0.724299 -0.66856
9.14787 -2.36332 6.16531 0.218381 -0.73976 -0.636447
9.19508 -2.64942 6.50649 0.17811 -0.718295 -0.672554
8.50878 -2.69793 6.34465 0.131672 -0.763824 -0.631851
8.736 -2.9255 6.67448 0.13076 -0.691171 -0.710763
7.95136 -3.30506 6.93475 0.02308 -0.670261 -0.741767
7.79895 -3.15182 6.81105 0.045504 -0.751136 -0.658578
7.00053 -3.40776 7.12997 -0.0971158 -0.593362 -0.799056
6.68687 -3.26734 7.04934 -0.0981443 -0.714949 -0.692254
7.92048 -2.82298 6.385 0.0133773 -0.797268 -0.603477
7.21201 -3.03983 6.70268 -0.0556583 -0.81089 -0.582545
7.64063 -2.44702 5.879 -0.0532769 -0.785377 -0.616721
7.94806 -2.41627 5.86638 0.123186 -0.732049 -0.670022
7.1793 -2.45837 5.94677 -0.0899756 -0.725181 -0.682655
5.77169 -2.58514 6.38088 -0.11677 -0.740669 -0.661646
6.58338 -2.40654 6.02003 -0.101976 -0.771355 -0.628182
4.78321 -2.70699 7.04336 -0.587096 -0.453768 -0.670383
5.06342 -2.92444 6.96578 -0.436638 -0.50536 -0.744284
4.80859 -3.06376 7.24606 -0.687548 -0.369206 -0.625272
4.64658 -3.16947 7.47453 -0.685877 -0.361402 -0.631634
4.63364 -3.47495 7.67699 -0.886019 -0.282475 -0.367667
4.49147 -3.20401 7.88041 -0.986496 -0.157822 -0.0437949
4.55303 -3.11105 8.8549 -0.943465 -0.112174 0.311915
4.50413 -3.00997 8.73495 -0.99005 -0.117879 0.0768491
4.55616 -3.59013 8.59478 -0.980646 -0.194691 0.0207253
4.63664 -3.80462 8.77167 -0.939539 -0.33447 0.0734529
4.81689 -4.28845 8.69977 -0.899009 -0.382179 0.213828
4.62299 -3.67563 7.88051 -0.839965 -0.442086 -0.314671
5.02035 -4.55771 8.35364 -0.579399 -0.686045 -0.440044
5.81979 -4.90033 8.17221 -0.275931 -0.710664 -0.647162
5.44862 -4.67718 8.11391 -0.245589 -0.625135 -0.740873
6.22029 -5.02642 8.14961 -0.235471 -0.688356 -0.68609
6.42513 -5.19869 8.2848 -0.220404 -0.802084 -0.555052
6.99121 -5.12295 7.98017 -0.198403 -0.736893 -0.646239
6.81154 -5.22624 8.18015 -0.191043 -0.813315 -0.549565
6.28041 -5.27576 8.54996 -0.171157 -0.928371 -0.329898
6.68086 -5.38324 8.67958 -0.14496 -0.989409 -0.00752487
8.6422 -4.41309 7.40582 0.110486 -0.374397 -0.920663
8.815 -4.62354 7.52069 0.132891 -0.42894 -0.893505
8.174 -4.56945 7.42838 0.0305102 -0.429229 -0.90268
8.22122 -5.38745 8.79753 0.0401174 -0.892132 0.449989
7.62611 -5.39083 8.81052 -0.00329912 -0.929973 0.367613
8.15328 -5.42935 8.69243 0.0241785 -0.97101 0.237814
8.49256 -5.30145 8.90851 0.153418 -0.835262 0.528015
8.49449 -5.39691 8.71929 0.15204 -0.936028 0.317387
8.24064 -4.57659 9.44895 0.120899 -0.382055 0.916197
8.50712 -4.91038 9.25834 0.117235 -0.482643 0.867935
8.24043 -4.33518 9.54314 0.162264 -0.334303 0.928392
8.71227 -4.14058 9.50214 0.249689 -0.283966 0.925753
8.62105 -4.77852 9.29788 0.235295 -0.383044 0.89326
8.72574 -4.50796 9.3764 0.263661 -0.333529 0.905119
9.16171 -4.60855 9.18611 0.306008 -0.400901 0.863503
9.64447 -4.4295 9.09717 0.336107 -0.445102 0.83001
9.6913 -4.17299 9.1918 0.310722 -0.330837 0.891066
9.81717 -4.55337 8.95633 0.40396 -0.506501 0.761756
9.5281 -4.79814 8.92093 0.364873 -0.542031 0.757014
10.3382 -4.49144 8.62151 0.599299 -0.627097 0.497584
10.5445 -4.27852 8.5993 0.671986 -0.549635 0.496322
10.7314 -4.07024 8.5572 0.718977 -0.481149 0.501566
10.8789 -3.68698 8.65684 0.736533 -0.37821 0.560782
10.7996 -3.46841 8.84439 0.640122 -0.306494 0.704489
10.5404 -3.72204 8.9378 0.546717 -0.312451 0.776836
10.6852 -3.38994 8.96171 0.544195 -0.246444 0.801946
10.3926 -2.928 9.23607 0.433169 -0.185497 0.882018
10.8726 -4.02123 8.35744 0.797972 -0.473947 0.37231
11.0229 -3.72248 8.37328 0.834984 -0.417865 0.358038
11.0087 -3.52833 8.56989 0.831326 -0.32876 0.448122
11.1588 -3.53858 8.2405 0.877361 -0.349448 0.328821
10.927 -4.0795 8.08581 0.843378 -0.493438 0.212681
11.1292 -3.74416 8.00947 0.895983 -0.405599 0.180844
11.2638 -3.46674 7.89181 0.935977 -0.350562 0.0324447
11.4483 -2.89149 7.59159 0.950943 -0.281058 -0.129279
11.518 -2.49551 7.77882 0.98973 -0.14234 0.0132123
11.5575 -2.01292 8.12925 0.982835 -0.149323 0.108341
11.6157 -1.56442 8.12893 0.978408 -0.105562 0.177691
11.5687 -2.09573 7.66429 0.991069 -0.132312 -0.0166265
11.649 -1.54824 7.81556 0.995789 -0.0873687 -0.0277801
11.5307 -1.87644 8.31013 0.944441 -0.11532 0.307787
11.6006 -1.41735 8.2384 0.949647 -0.0141755 0.313001
11.5749 -1.79938 7.23713 0.987035 -0.0782378 -0.140146
11.5343 -2.20184 7.33459 0.981702 -0.147584 -0.120329
11.4805 -2.14229 7.03212 0.931744 -0.175889 -0.317673
11.4547 -2.44178 7.18738 0.913252 -0.256258 -0.316705
11.3624 -1.93708 6.67589 0.855009 -0.230044 -0.464801
11.2535 -2.07956 6.58359 0.754028 -0.322362 -0.572297
7.10859 -4.82054 7.69899 -0.21235 -0.484954 -0.848367
6.56301 -4.51842 7.69675 -0.226994 -0.413526 -0.881743
11.1231 -2.66541 6.8106 0.661583 -0.422723 -0.619366
10.9905 -2.38064 6.49284 0.580966 -0.43021 -0.69094
11.3134 -2.64219 7.04191 0.791514 -0.351647 -0.49985
11.2566 -2.97408 7.1968 0.752186 -0.412492 -0.513873
10.9215 -2.58542 6.5772 0.465754 -0.508887 -0.723952
10.6207 -2.72979 6.51639 0.29598 -0.557896 -0.775337
10.5339 -3.08037 6.73716 0.233521 -0.549187 -0.80241
10.8498 -2.8436 6.71267 0.445061 -0.511854 -0.734797
10.4186 -2.66667 6.41565 0.193166 -0.601888 -0.774866
10.2782 -2.84865 6.53306 0.0543751 -0.600773 -0.797568
10.408 -2.36001 6.17752 0.216054 -0.580057 -0.785401
10.0007 -2.43738 6.20541 -0.0809942 -0.666278 -0.741292
9.74553 -2.31494 6.14398 -0.131287 -0.695487 -0.706443
9.74978 -1.87789 5.71853 -0.0233968 -0.702456 -0.711342
9.48326 -1.63856 5.48173 0.1179 -0.693368 -0.710873
9.41842 -2.36277 6.2264 0.0263735 -0.735257 -0.677275
9.51462 -2.64494 6.52407 -0.11175 -0.69519 -0.710087
9.38338 -2.75358 6.64581 0.015046 -0.69416 -0.719664
9.2439 -2.8491 6.72184 0.119059 -0.658283 -0.743296
8.99733 -3.0347 6.83176 0.162155 -0.679422 -0.715606
8.4996 -3.3624 7.00038 0.069641 -0.58761 -0.806142
6.51673 -2.99375 6.77257 -0.0449027 -0.726749 -0.685434
5.98608 -3.00218 6.81269 -0.0542588 -0.76667 -0.639744
5.67175 -3.03364 6.85406 -0.12174 -0.706777 -0.696883
5.28903 -2.98391 6.90588 -0.270578 -0.568474 -0.776933
5.22627 -3.23273 7.11076 -0.352877 -0.500118 -0.790797
5.10654 -3.37225 7.24338 -0.427352 -0.490372 -0.759543
4.93652 -4.31597 8.11962 -0.715592 -0.593261 -0.368741
5.17188 -4.42444 8.01911 -0.388842 -0.645046 -0.657812
5.72346 -4.41322 7.84077 -0.146413 -0.594158 -0.790911
6.9869 -4.977 7.85103 -0.184313 -0.635203 -0.750031
7.44847 -5.16731 7.91298 -0.116506 -0.783714 -0.610097
7.57574 -4.99412 7.72941 -0.108943 -0.628767 -0.769924
7.11847 -5.2846 8.17652 -0.131279 -0.875513 -0.465019
7.46781 -5.28011 8.09319 -0.0802053 -0.888242 -0.45232
7.88126 -5.32306 8.10929 -0.0485685 -0.901243 -0.430584
7.62158 -5.36837 8.27314 -0.0359729 -0.944672 -0.326038
7.35963 -5.40187 8.37774 -0.0614879 -0.951345 -0.301929
7.55412 -5.42297 8.47534 -0.0217545 -0.984207 -0.175681
7.38541 -5.43412 8.65076 -0.0278848 -0.99578 0.0874389
7.04212 -5.41651 8.52303 -0.0852167 -0.972298 -0.217657
6.75256 -5.3513 8.4362 -0.181597 -0.91953 -0.348549
6.855 -5.40294 8.60291 -0.129242 -0.987669 -0.0883533
7.68175 -5.44329 8.63134 -0.0117217 -0.993855 0.110069
8.34831 -5.44488 8.53137 0.0515358 -0.997414 -0.0500925
8.75807 -5.27053 8.84449 0.322786 -0.834404 0.446742
9.06478 -5.06946 8.93526 0.364965 -0.695404 0.619043
8.65811 -5.16369 9.024 0.232548 -0.686995 0.688447
8.99801 -4.93743 9.07585 0.335351 -0.516702 0.787755
8.66215 -4.98294 9.17902 0.260576 -0.525622 0.809828
9.78376 -4.78272 8.78894 0.42859 -0.667522 0.608872
9.83199 -4.93101 8.53351 0.468532 -0.782598 0.409901
10.0932 -4.80767 8.44146 0.55154 -0.742838 0.379467
10.3933 -4.59406 8.36835 0.650383 -0.678362 0.341799
10.3322 -4.64036 8.00671 0.512926 -0.802779 -0.304059
10.2416 -4.74774 8.25135 0.581116 -0.81381 0.00417347
10.0209 -4.86643 8.20334 0.474368 -0.860281 -0.186794
10.094 -4.7703 8.00472 0.414922 -0.808778 -0.416796
10.2983 -4.51889 7.77945 0.375675 -0.723373 -0.579309
10.2533 -4.30877 7.53592 0.257314 -0.631098 -0.731782
10.4885 -4.21797 7.57139 0.413294 -0.637176 -0.650534
9.95073 -4.47033 7.59904 0.114623 -0.580359 -0.806254
10.1067 -4.2058 7.43784 0.0748977 -0.5593 -0.825575
10.2829 -4.02095 7.32791 0.118641 -0.566902 -0.815197
10.4314 -3.98106 7.34343 0.288166 -0.592186 -0.752513
10.6471 -3.58201 7.11797 0.371576 -0.554484 -0.744633
10.8022 -3.76681 7.37146 0.516187 -0.581076 -0.629208
10.5963 -3.93339 7.37706 0.431858 -0.604426 -0.669453
10.6195 -3.25843 6.88593 0.321328 -0.532307 -0.783197
10.8374 -3.18644 6.94765 0.461327 -0.524471 -0.715617
11.0254 -3.0895 7.01176 0.595298 -0.477099 -0.646527
10.9232 -3.57395 7.31003 0.56302 -0.529643 -0.634418
11.154 -3.40411 7.43429 0.733852 -0.485288 -0.475349
10.9517 -3.76943 7.53018 0.665088 -0.559851 -0.494191
10.7412 -4.12344 7.68384 0.566147 -0.617314 -0.546261
10.8599 -4.10495 7.83691 0.725949 -0.586784 -0.358724
10.5518 -4.38446 7.79712 0.523639 -0.70902 -0.472327
10.5388 -4.50209 8.21817 0.670224 -0.736394 0.0923216
10.5965 -4.44985 8.0436 0.657343 -0.744093 -0.11927
10.6944 -4.33456 8.26001 0.737938 -0.615071 0.27773
10.8805 -4.14951 8.00214 0.765964 -0.637367 -0.0840357
10.7176 -4.29607 7.90718 0.662631 -0.675071 -0.324345
11.1096 -3.78204 7.87664 0.848142 -0.494309 -0.190559
11.3049 -3.29513 7.68053 0.892891 -0.403553 -0.199724
11.2933 -3.19662 7.47805 0.85455 -0.407569 -0.321917
11.3952 -2.79619 7.32396 0.886913 -0.309459 -0.342958
11.4904 -2.61259 7.50677 0.971561 -0.184347 -0.148614
11.3682 -2.22364 6.84611 0.838515 -0.297819 -0.456285
6.17115 -4.87968 8.03356 -0.251769 -0.549061 -0.796959
11.0916 -3.32717 7.27222 0.673027 -0.480305 -0.562443
11.1111 -3.65338 7.64784 0.779458 -0.515867 -0.355425
9.50035 -5.12997 8.34718 0.357844 -0.923147 -0.140521
9.50365 -5.10666 8.4972 0.392604 -0.880007 0.267299
9.28031 -5.21341 8.36161 0.324622 -0.941532 -0.0902092
10.3492 -3.12413 6.73782 0.0595804 -0.55471 -0.829908
10.1679 -3.06866 6.69936 -0.0402164 -0.557435 -0.829246
9.88537 -2.94433 6.66664 -0.245829 -0.531837 -0.810381
9.51943 -2.88052 6.73583 -0.193213 -0.612384 -0.766586
9.8883 -2.77744 6.54569 -0.201382 -0.63099 -0.749198
10.0404 -2.90396 6.60479 -0.146636 -0.573618 -0.805891
9.91405 -3.3613 6.92813 -0.163984 -0.536377 -0.827894
9.72822 -3.43756 7.01745 -0.20669 -0.47128 -0.857423
9.90961 -2.58925 6.37778 -0.184615 -0.659622 -0.728571
9.74152 -2.5316 6.36336 -0.15927 -0.682488 -0.713333
10.096 -2.68101 6.41308 -0.0938841 -0.643666 -0.759526
9.35136 -3.00381 6.85671 -0.0089811 -0.570144 -0.821495
9.18408 -3.23471 6.98939 0.022663 -0.453258 -0.891091
9.0002 -3.31578 7.01975 0.0499515 -0.43302 -0.899999
7.96306 -3.52569 7.08954 -0.056703 -0.511111 -0.857642
6.60425 -3.82131 7.38947 -0.0986168 -0.40312 -0.909818
6.72094 -3.97194 7.43409 -0.14806 -0.326 -0.933703
6.13521 -4.09029 7.57987 -0.104788 -0.442506 -0.890622
6.01731 -3.87523 7.45182 -0.0250353 -0.514701 -0.857004
6.1639 -3.57502 7.27271 0.0282463 -0.537061 -0.84307
6.53999 -3.59638 7.28926 -0.0225123 -0.474716 -0.879851
5.91389 -3.30087 7.06926 0.00426364 -0.654407 -0.75613
5.51009 -3.4125 7.15915 -0.152642 -0.538947 -0.828394
5.19774 -3.71929 7.44065 -0.370018 -0.527038 -0.765061
5.14097 -3.9817 7.64776 -0.404283 -0.553866 -0.727865
4.81717 -3.59428 7.55652 -0.529479 -0.507542 -0.679745
4.84125 -3.95502 7.81905 -0.542124 -0.525139 -0.655996
4.88752 -4.15506 7.97538 -0.501523 -0.612249 -0.61125
5.36849 -4.1667 7.70896 -0.0955944 -0.585685 -0.804882
5.85705 -4.54824 7.90972 -0.175392 -0.52051 -0.835648
7.6052 -4.78434 7.57946 -0.0885447 -0.502083 -0.860275
8.07847 -4.9932 7.68112 -0.0254352 -0.592282 -0.805329
8.17221 -5.11486 7.78247 -0.0248933 -0.702163 -0.711581
7.779 -5.172 7.87947 -0.0665741 -0.77843 -0.624192
8.23577 -5.22337 7.9102 0.0035962 -0.817939 -0.575293
7.97515 -5.41158 8.38386 -0.0221236 -0.970455 -0.240267
8.2839 -5.38389 8.25175 0.0136926 -0.96223 -0.271894
8.58341 -5.41223 8.45249 0.143652 -0.979472 -0.141414
8.03099 -5.44332 8.56803 -0.00778884 -0.997409 -0.0715108
8.65737 -5.38852 8.60103 0.224471 -0.951736 0.209311
9.16294 -5.22314 8.57936 0.362986 -0.882289 0.299678
8.91192 -5.33919 8.52835 0.304051 -0.944588 0.123723
9.56564 -4.98717 8.68551 0.392238 -0.788874 0.473104
9.71035 -5.04079 8.33991 0.426472 -0.903039 0.0513949
8.19793 10.7815 2.89393 -0.960141 0.2582 -0.107066
8.10832 10.3992 2.81252 -0.966198 0.241839 -0.0893049
9.53703 -5.04859 8.10625 0.304933 -0.86539 -0.397638
9.85125 -4.93567 8.1187 0.387847 -0.883889 -0.26137
9.92383 -4.93562 8.34394 0.478194 -0.87646 0.0561076
9.66013 -4.89863 7.9227 0.257832 -0.757125 -0.600237
9.8957 -4.84075 7.96515 0.313222 -0.786501 -0.532267
9.85122 -4.65833 7.7361 0.21729 -0.672875 -0.707124
10.0429 -4.66405 7.819 0.311489 -0.738777 -0.597649
7.69824 9.27281 4.54301 -0.988905 0.141206 -0.0461243
7.76871 9.67938 4.40995 -0.979367 0.198421 -0.0383205
10.0812 -4.51953 7.67751 0.260745 -0.683758 -0.681533
9.59286 -4.5834 7.63418 0.118967 -0.529339 -0.840028
9.72181 -4.41545 7.54651 0.0606749 -0.489753 -0.869747
9.46959 -4.16801 7.40051 0.0392235 -0.446573 -0.893887
9.367 -4.42328 7.52078 0.105068 -0.452932 -0.885332
9.23326 -3.86134 7.25017 0.0407706 -0.393329 -0.918494
8.96766 -3.86058 7.23789 0.0531155 -0.355623 -0.933119
9.06812 -3.63133 7.14829 0.026618 -0.378529 -0.925206
9.22987 -3.57502 7.12769 -0.0119413 -0.382207 -0.924
8.88308 -3.6675 7.15717 0.0283078 -0.36881 -0.929074
9.72694 -4.09511 7.36124 -0.0237103 -0.479023 -0.877482
9.36228 -3.76656 7.20915 -0.021788 -0.430681 -0.902241
9.69167 -3.90323 7.26113 -0.0651338 -0.459039 -0.886025
9.8778 -4.25261 7.4586 0.0246839 -0.524395 -0.851118
10.0244 -3.95795 7.26981 -0.00440043 -0.521697 -0.85312
7.62548 8.68796 4.49538 -0.987113 0.136714 -0.0831647
10.2331 -3.71538 7.12134 0.0241314 -0.549901 -0.834881
10.4078 -3.67749 7.1118 0.186212 -0.566199 -0.80296
10.1538 -3.35997 6.88281 -0.0590171 -0.547068 -0.835005
10.0666 -3.67921 7.10939 -0.0918805 -0.512561 -0.853721
9.87084 -3.61633 7.09884 -0.109328 -0.477979 -0.871541
10.4009 -3.40799 6.92421 0.140019 -0.552206 -0.821866
9.53647 -3.11372 6.90124 -0.232543 -0.505306 -0.831017
9.52245 -3.59401 7.12165 -0.0781539 -0.41919 -0.904529
9.39299 -3.26169 6.99776 -0.0860082 -0.412879 -0.906716
8.68891 -3.58764 7.12103 0.018623 -0.389077 -0.921017
6.16514 -4.50432 7.80565 -0.216345 -0.456199 -0.863179
5.54886 -3.74753 7.37867 -0.0654151 -0.568096 -0.820359
7.47719 -4.48954 7.45249 -0.181136 -0.384077 -0.905359
7.89342 -4.51669 7.41518 -0.0647875 -0.417538 -0.906347
8.35868 -4.90431 7.6209 0.0315322 -0.530161 -0.847311
8.54234 -4.78222 7.56865 0.0968965 -0.470519 -0.877053
8.97208 -4.80881 7.64496 0.146714 -0.500637 -0.853134
8.88815 -5.0203 7.76096 0.158539 -0.639355 -0.75239
8.84869 -4.10962 7.31554 0.0904676 -0.342292 -0.935228
9.13681 -4.15008 7.36502 0.0914717 -0.395226 -0.914018
9.0395 -4.46402 7.48937 0.139488 -0.402719 -0.904633
9.27001 -4.73936 7.67447 0.161646 -0.473714 -0.865717
9.15257 -4.88558 7.73932 0.22093 -0.62293 -0.750432
7.72221 9.44891 4.77604 -0.977467 0.206337 0.0445374
8.63373 -5.21195 7.94142 0.117135 -0.832358 -0.541719
8.3359 -5.32162 8.07941 0.0361405 -0.89945 -0.435526
8.57255 -5.35128 8.20823 0.108687 -0.933618 -0.341387
8.90349 -5.31922 8.26567 0.221837 -0.953828 -0.202485
8.99191 -5.13664 7.93839 0.234448 -0.77722 -0.58392
9.33758 -4.9417 7.84711 0.25134 -0.744904 -0.618018
9.55376 -4.76675 7.74755 0.202256 -0.621889 -0.756536
8.48216 -3.73918 7.17117 0.0210769 -0.317968 -0.947867
8.18448 -4.06766 7.25968 -0.0110963 -0.251596 -0.967769
7.79108 -3.78518 7.2125 -0.0764057 -0.319327 -0.944559
6.82112 -4.20798 7.49233 -0.198517 -0.331072 -0.922487
7.41186 -4.15034 7.35665 -0.151737 -0.267544 -0.951523
7.87319 -4.22137 7.31072 -0.0949134 -0.226794 -0.969307
8.58 -4.16307 7.30523 0.0753261 -0.323423 -0.943252
8.50922 11.721 2.49758 -0.950714 0.296109 -0.0919947
8.38051 11.2529 2.40355 -0.956396 0.273627 -0.102149
8.28051 11.2088 3.23014 -0.952984 0.288734 -0.0919488
8.02873 10.0422 2.70699 -0.966522 0.249208 -0.0610755
8.62997 -5.08175 7.78082 0.0655123 -0.689907 -0.720927
7.35124 -3.68963 7.23794 -0.130157 -0.290225 -0.948066
8.14784 10.8188 3.38267 -0.956983 0.26758 -0.11218
4.6605 -3.91258 8.19399 -0.940468 -0.333537 -0.0653652
4.76562 -4.16058 8.40567 -0.915791 -0.401051 -0.0220075
11.6046 -1.06706 8.15875 0.964913 0.0879532 0.247402
11.3629 0.134276 7.6734 0.95273 0.264127 -0.150142
10.2681 2.58765 9.23459 0.646115 0.245735 0.722599
10.3251 2.31587 9.25412 0.657648 0.158266 0.736513
6.39188 3.28984 7.64365 -0.964389 0.241116 0.108707
6.32324 3.11212 6.84177 -0.97318 0.219871 -0.0676574
6.34446 3.1878 7.34906 -0.980344 0.191522 0.0473853
6.22164 2.74605 7.2053 -0.969044 0.246876 -0.00258488
7.67598 5.28008 2.64786 -0.551349 -0.160867 -0.818619
10.4435 3.99116 5.74079 0.976699 -0.058212 -0.206567
10.4546 4.39011 5.63665 0.971777 -0.0904042 -0.21789
10.5824 5.41901 5.7974 0.966215 -0.0507616 -0.25269
6.79224 5.1097 7.3582 -0.940022 0.229009 0.252812
9.1072 4.36396 2.73658 0.350885 -0.371755 -0.859464
10.3649 5.42321 3.79443 0.96874 -0.133277 -0.209238
9.3945 13.8302 2.91427 -0.81595 0.511423 0.269578
9.54455 14.0765 2.86165 -0.717889 0.579464 0.385819
9.49234 14.155 2.55935 -0.837007 0.514681 0.185802
9.54391 5.03174 2.6706 0.521179 -0.350259 -0.778261
8.99134 12.7514 3.62295 -0.798884 0.507556 0.322754
9.17861 12.6268 4.05952 -0.589743 0.583215 0.558627
9.2171 12.858 3.85765 -0.65888 0.562812 0.499119
10.2867 5.17031 3.68391 0.935025 -0.191194 -0.298619
9.05316 12.5525 3.99219 -0.656828 0.569108 0.494665
9.02787 12.157 4.3876 -0.572341 0.575483 0.584162
8.90383 12.1731 4.22957 -0.655762 0.56413 0.50173
8.85897 11.7924 4.57217 -0.59063 0.566421 0.574738
8.76897 11.8507 4.41363 -0.656059 0.556972 0.509283
8.72911 11.3241 4.89611 -0.550278 0.570154 0.610015
8.99289 11.84 4.64665 -0.508408 0.57264 0.643121
8.92966 11.4566 4.93707 -0.475939 0.579891 0.661218
9.12307 12.0852 4.53438 -0.470872 0.578788 0.665796
8.90542 11.1195 5.20875 -0.41986 0.579859 0.698199
8.56301 10.7771 5.25425 -0.55604 0.561757 0.612575
8.74579 11.0887 5.1279 -0.497284 0.575705 0.649055
8.45008 10.3082 5.58021 -0.559742 0.544156 0.624967
8.41324 10.5977 5.27069 -0.641168 0.534771 0.550385
8.54492 11.1062 4.92036 -0.617863 0.55512 0.556854
8.34557 11.2786 4.37053 -0.843245 0.471333 0.258424
8.1953 10.9782 4.37398 -0.894316 0.417288 0.16146
8.00636 10.4763 4.49029 -0.935929 0.336919 0.102581
7.92097 10.1469 4.7599 -0.929518 0.3305 0.163604
7.81506 9.49466 5.30544 -0.922704 0.304888 0.235924
7.88516 9.62828 5.37622 -0.887023 0.350175 0.300946
7.79775 9.64916 5.00202 -0.949636 0.276462 0.147512
7.87782 10.0792 4.55901 -0.95844 0.278533 0.0617426
7.96171 10.3946 4.20882 -0.957276 0.289052 -0.00848075
7.67747 9.08238 5.10891 -0.977171 0.197205 0.0790371
7.63503 8.87158 4.78802 -0.986959 0.159915 -0.0184291
7.56747 8.51361 4.90689 -0.978965 0.200993 -0.0350612
10.1628 6.17502 2.87684 0.884058 -0.217048 -0.413923
7.40407 7.32707 3.26008 -0.976026 0.192806 -0.100992
7.38564 7.12569 3.11427 -0.96721 0.184967 -0.174048
7.52359 7.43979 2.71098 -0.963385 0.127557 -0.235836
7.55379 6.48591 2.56403 -0.870082 0.00927229 -0.492821
7.6282 7.04587 2.42854 -0.811627 -0.0365188 -0.583033
8.08068 4.73097 2.57082 -0.259855 -0.271432 -0.926715
8.14633 9.15134 1.58854 -0.767502 0.0367969 -0.639989
8.48889 4.87217 2.46123 -0.0432687 -0.302645 -0.952121
10.4455 7.44824 3.18148 0.994849 -0.070279 -0.0730463
8.50443 9.87115 1.23406 -0.661895 0.00353993 -0.749588
8.56657 9.71143 1.18682 -0.58536 -0.0439078 -0.809584
9.05474 10.0333 0.888326 -0.333959 -0.131509 -0.933368
8.83511 9.97815 0.997222 -0.474473 -0.0757733 -0.877002
8.98456 10.3602 0.892927 -0.416301 -0.0488112 -0.907916
9.23353 10.1431 0.822229 -0.245553 -0.109643 -0.963162
9.16216 10.6375 0.804785 -0.335026 -0.0580476 -0.940419
9.42503 10.5623 0.731998 -0.19018 -0.10398 -0.976227
8.8599 11.163 0.990092 -0.675299 0.0888832 -0.732169
8.89364 11.387 0.996079 -0.697331 0.107487 -0.708644
9.00055 11.2956 0.894589 -0.582519 0.0492646 -0.811323
9.31479 9.32343 0.96821 0.0262686 -0.248657 -0.968235
9.70131 8.64401 1.2613 0.373588 -0.386606 -0.843189
9.79844 8.39072 1.43488 0.450549 -0.368437 -0.813179
9.49813 8.57767 1.22193 0.220962 -0.403944 -0.887697
9.69627 8.86466 1.17378 0.313074 -0.308083 -0.898371
10.2493 9.5411 1.30017 0.686071 -0.309074 -0.65862
10.1916 9.90009 1.0861 0.602708 -0.292607 -0.742378
10.4304 10.6986 1.05006 0.695258 -0.190366 -0.693092
10.3416 10.199 1.10653 0.679644 -0.235755 -0.694625
10.6427 11.1049 1.23928 0.884291 -0.164901 -0.436849
10.5548 10.8464 1.16718 0.842868 -0.171269 -0.510139
10.6372 11.3542 1.13546 0.86384 -0.189113 -0.466923
10.5087 11.1149 1.02839 0.767578 -0.184638 -0.613786
10.6634 11.5524 1.09458 0.872503 -0.215973 -0.438285
10.5584 11.4878 0.962052 0.757092 -0.221155 -0.614737
10.3437 11.0638 0.879965 0.629083 -0.209745 -0.748507
10.7033 12.2301 0.872698 0.774513 -0.183473 -0.605365
10.68 11.9706 0.942306 0.801642 -0.219954 -0.555868
10.5544 11.8995 0.814155 0.678232 -0.219551 -0.701283
10.7706 12.0733 1.05242 0.903347 -0.182642 -0.38808
10.7608 12.5645 0.866193 0.835867 -0.110646 -0.537664
10.8722 12.5632 1.1091 0.945569 -0.0948574 -0.31129
10.7557 11.5286 1.34484 0.933569 -0.184134 -0.307479
10.7466 11.1244 1.59131 0.962959 -0.157652 -0.21876
10.7855 11.1509 1.81307 0.980514 -0.143781 -0.13386
10.7215 10.6194 1.81854 0.983712 -0.132063 -0.121944
10.8266 11.3095 1.9703 0.988927 -0.135688 -0.0601001
10.8347 11.4231 2.40821 0.988749 -0.144448 0.0388528
10.8149 11.3689 2.75408 0.981582 -0.190317 -0.0166298
10.8243 11.1225 3.1713 0.941069 -0.24905 -0.228829
10.7492 10.8446 3.19849 0.946808 -0.244719 -0.208968
10.8529 11.4674 2.87712 0.956181 -0.242104 -0.16463
10.7978 10.3582 3.77956 0.922509 -0.279816 -0.265857
10.6847 10.4493 3.32148 0.933297 -0.252824 -0.255024
9.61844 5.90104 8.47202 0.436366 0.423716 0.793757
9.04289 6.29749 8.48834 0.211895 0.497226 0.841348
8.50036 5.92853 8.66743 -0.149809 0.39961 0.904361
8.70054 5.78491 8.75296 -0.128918 0.32362 0.937364
8.10796 6.77163 8.07499 -0.389542 0.486819 0.781834
7.95205 6.74837 7.99891 -0.480271 0.472622 0.738897
10.8397 10.5406 3.75298 0.93944 -0.214218 -0.267513
10.8924 11.0848 3.456 0.946968 -0.233746 -0.220488
10.9836 11.8331 3.0872 0.96651 -0.205389 -0.153863
11.0342 11.8678 3.32725 0.974417 -0.191574 -0.117517
11.0708 12.0629 3.43568 0.998172 -0.037045 0.0477437
11.0178 11.6268 3.76915 0.995148 -0.091209 0.0368897
10.9485 11.1078 4.11598 0.985419 -0.0308707 0.167319
11.0511 12.0671 3.61712 0.989324 0.0127967 0.145167
11.0434 12.9519 3.15571 0.972097 0.151856 0.178793
11.0847 12.6083 3.12219 0.999536 0.0128069 0.0276266
11.0681 13.1522 2.82684 0.98955 0.0911375 0.111734
11.0721 13.6375 2.37326 0.999329 -0.00309126 0.0364885
11.0378 13.6899 2.65283 0.975696 0.0959025 0.197026
10.9518 13.6512 2.92533 0.859891 0.249646 0.445269
10.9804 13.908 2.71345 0.903486 0.173608 0.391884
10.9074 13.9982 2.80843 0.846614 0.237433 0.47631
11.0165 13.3364 2.94633 0.929151 0.209296 0.304751
10.834 13.8685 2.99338 0.76839 0.313983 0.557666
11.0209 14.329 2.49119 0.868845 0.102123 0.484437
11.069 14.1128 2.41105 0.973597 0.0261206 0.226775
11.1137 14.3105 2.28226 0.957812 -0.0988264 0.269869
11.123 14.6545 2.30983 0.845289 0.0744182 0.529101
11.2226 14.7491 2.07864 0.972229 -0.0160139 0.233484
11.1852 14.9222 2.13121 0.850937 0.267685 0.451942
11.0232 14.8611 2.37059 0.699722 0.267217 0.662559
10.8222 14.8595 2.53897 0.512571 0.393906 0.762961
10.6255 14.7801 2.67054 0.339524 0.459298 0.820834
10.7566 14.5775 2.70061 0.522893 0.385673 0.760158
10.4621 14.3831 3.003 0.377444 0.529714 0.759565
10.3413 14.3901 3.03317 0.132141 0.614106 0.778083
10.1895 14.265 3.14186 -0.0897935 0.636313 0.766187
10.4747 14.6899 2.76472 0.170845 0.579495 0.796868
10.6084 14.5623 2.79984 0.391369 0.498982 0.773206
10.5293 15.0272 2.52523 -0.0509763 0.646678 0.761058
10.3765 14.7908 2.69453 -0.0870367 0.66056 0.745712
10.2608 14.5391 2.92005 0.0204621 0.647385 0.761888
10.271 14.8622 2.59983 -0.292852 0.679119 0.673079
10.1077 14.7663 2.60173 -0.452305 0.673755 0.584358
9.92781 14.5849 2.66193 -0.562754 0.668713 0.485933
9.68493 14.373 2.66745 -0.683378 0.623355 0.380031
9.75611 14.2864 2.87541 -0.562261 0.643775 0.519053
9.94249 14.7799 2.42388 -0.621513 0.626299 0.470608
9.78396 14.6411 2.3742 -0.738935 0.598239 0.309977
10.0645 15.1488 2.09592 -0.647772 0.648169 0.400335
9.94275 14.9888 2.10184 -0.784397 0.557531 0.27181
9.64592 14.3929 2.51012 -0.817654 0.547352 0.178459
9.68975 14.5802 2.11647 -0.855609 0.501269 0.129087
9.24827 13.804 1.95496 -0.929863 0.366587 -0.0311397
9.23115 13.6909 2.38806 -0.923272 0.380041 0.0560107
9.29576 13.9099 2.17021 -0.881066 0.469437 0.0578889
9.06431 13.279 2.29712 -0.937128 0.348819 -0.0107521
9.00652 13.126 2.75781 -0.922336 0.384322 0.0399088
8.97453 12.5419 3.88619 -0.718096 0.556856 0.417433
8.74507 12.1084 4.06051 -0.768559 0.530746 0.357248
8.65501 11.7368 4.38089 -0.725119 0.536546 0.431649
8.52052 11.5019 4.44041 -0.762198 0.517696 0.388645
8.44743 11.0978 4.80853 -0.698178 0.532731 0.478273
8.58238 11.9319 3.86903 -0.867227 0.467595 0.171091
8.39969 11.556 3.92895 -0.895092 0.429609 0.119359
8.58699 11.8177 4.13552 -0.82607 0.492987 0.273077
8.08169 10.7545 4.24671 -0.931072 0.356696 0.0766409
8.20646 11.0867 4.03735 -0.921767 0.38311 0.0597658
8.07875 10.755 4.01256 -0.946386 0.322337 -0.0212707
8.07082 10.6727 3.71874 -0.954779 0.288518 -0.0717946
7.8931 10.1061 4.00761 -0.968793 0.236039 -0.0756728
7.90638 10.0727 3.80348 -0.967634 0.219957 -0.123706
8.00513 10.4092 3.6721 -0.962701 0.244334 -0.11622
7.87638 9.5246 3.09997 -0.969221 0.239432 -0.057297
7.73511 8.94274 3.6431 -0.98895 0.122616 -0.0833284
7.67033 8.64307 3.97377 -0.987639 0.12956 -0.0882265
7.55572 8.022 3.94715 -0.967535 0.247582 -0.0507841
7.55968 8.00833 3.65348 -0.971165 0.238187 -0.0102426
7.56095 7.89377 2.76116 -0.981296 0.107114 -0.159953
7.67126 8.30366 2.3993 -0.973131 0.08464 -0.214131
7.51152 7.06088 2.65582 -0.915984 0.0377926 -0.39943
7.69034 7.41386 2.31552 -0.88467 -0.00215252 -0.466213
7.82911 8.57242 2.00389 -0.891662 0.0339937 -0.451424
7.75217 8.10469 2.17483 -0.89909 -0.00155098 -0.43776
8.05334 9.20623 1.7215 -0.837123 0.0863445 -0.540157
7.96157 8.8091 1.79947 -0.837946 0.0299291 -0.544932
7.97156 9.13368 1.85142 -0.898973 0.126409 -0.419367
7.9455 9.30203 1.98491 -0.933577 0.176821 -0.311719
7.85195 8.9241 2.06562 -0.932321 0.144062 -0.331699
7.82624 9.02007 2.2144 -0.953754 0.18498 -0.236931
8.09561 9.61037 1.74247 -0.902298 0.153213 -0.402968
9.88491 10.4825 0.779062 0.238939 -0.212512 -0.947495
10.0532 9.99942 0.960273 0.4162 -0.242582 -0.876317
9.91175 10.1341 0.87298 0.303804 -0.243861 -0.920997
8.74289 10.6494 1.04927 -0.634563 0.0387527 -0.771899
8.48558 10.1425 1.26131 -0.708839 0.0457285 -0.703886
8.65419 10.7407 1.14102 -0.732101 0.0889835 -0.67536
8.90962 10.6551 0.928355 -0.543099 0.017456 -0.839487
8.81585 10.3699 0.987741 -0.540536 -0.0156135 -0.841176
10.4248 12.3767 4.39988 0.531319 0.440175 0.723842
10.4282 12.761 4.15013 0.501132 0.480086 0.719989
9.60272 12.2626 0.567836 -0.391374 -0.0113111 -0.920162
9.35493 11.731 0.696643 -0.411918 -0.030418 -0.910713
9.31021 12.0532 0.714565 -0.51065 0.00926331 -0.859739
9.66802 12.0028 0.558753 -0.270092 -0.071695 -0.960161
9.34914 11.4074 0.710962 -0.370218 -0.0305791 -0.928442
9.34089 11.0367 0.724359 -0.319935 -0.03758 -0.946694
9.09433 11.0218 0.822256 -0.444915 -0.00187667 -0.895571
8.69264 10.1463 1.07687 -0.604213 -0.0114292 -0.796741
8.69838 9.54923 6.31544 -0.320585 0.578036 0.750399
8.88493 6.77347 8.21454 0.117917 0.529212 0.840256
9.38984 10.7679 0.723431 -0.228679 -0.0763502 -0.970503
9.51138 10.2571 0.765515 0.0186496 -0.175566 -0.984291
9.63613 10.0017 0.83901 0.169709 -0.22542 -0.959367
9.44715 9.81334 0.854201 0.0813853 -0.229706 -0.969851
9.6444 10.8541 0.678466 -0.00637168 -0.137043 -0.990545
9.59746 11.1621 0.646684 -0.191045 -0.0796485 -0.978344
9.86612 11.0811 0.662688 0.144064 -0.159804 -0.97658
9.82144 10.6793 0.725038 0.178574 -0.181345 -0.96707
10.0169 10.9922 0.717423 0.307596 -0.192457 -0.93185
10.0258 10.592 0.806583 0.380911 -0.202922 -0.90207
9.52573 9.30248 0.999538 0.177708 -0.264465 -0.947881
9.69949 9.50852 0.979906 0.230543 -0.259182 -0.93791
9.5225 8.90175 1.11423 0.20676 -0.286881 -0.935387
9.78956 9.2613 1.08402 0.32271 -0.284165 -0.902834
10.22 10.5539 0.915067 0.55767 -0.200192 -0.80556
10.1829 11.0658 0.771604 0.459589 -0.205695 -0.863984
10.5424 12.3367 0.671979 0.642831 -0.164939 -0.74804
10.6997 12.9554 0.745479 0.78497 -0.0358627 -0.618495
10.6181 12.6577 0.687607 0.6738 -0.0909653 -0.733294
10.815 12.9152 0.929651 0.889832 -0.0323103 -0.455142
10.9183 12.9094 1.23201 0.970936 -0.0419831 -0.235628
10.8781 13.0639 1.07289 0.943949 -0.0181059 -0.329594
10.9476 12.3639 1.51059 0.98017 -0.0949925 -0.173908
10.8569 12.0607 1.3049 0.949111 -0.164264 -0.268712
10.9084 12.0485 1.55699 0.975945 -0.165317 -0.142134
10.8409 11.7544 1.48757 0.967649 -0.176737 -0.180052
10.8876 11.8461 1.73719 0.984082 -0.160017 -0.0773174
10.9446 12.1081 1.83906 0.988926 -0.139454 -0.0507788
10.9932 12.5714 1.78349 0.994317 -0.0869414 -0.061435
10.9485 12.1191 2.17742 0.98869 -0.148417 -0.0215454
10.8602 11.5316 2.04096 0.990037 -0.140634 -0.00691796
10.8808 11.7167 2.40151 0.984501 -0.174795 -0.0143328
10.7945 11.0498 2.20924 0.99178 -0.121501 0.0401181
10.9402 11.9349 2.61661 0.973992 -0.2011 -0.104395
11.0883 12.9488 2.75373 0.999383 -0.0178775 -0.0302428
11.2308 14.6528 1.93401 0.979754 -0.19264 -0.0545092
11.1038 14.0878 2.14759 0.991419 -0.118742 0.0546647
11.2332 15.0586 1.85644 0.970927 0.215319 0.104584
11.1488 15.1821 1.94766 0.77867 0.529958 0.335882
11.033 15.0826 2.23867 0.671382 0.45663 0.583726
10.6837 15.0675 2.4733 0.262334 0.566239 0.78138
10.8952 15.1368 2.31583 0.434964 0.560185 0.704982
10.6966 15.3368 2.23274 0.146545 0.719579 0.678771
10.7085 15.52 1.98973 0.185141 0.841942 0.50681
10.5288 15.4756 2.03826 -0.230649 0.806185 0.544855
10.1369 15.0759 2.27747 -0.533165 0.661214 0.527761
10.2899 15.4174 1.96088 -0.479824 0.767308 0.425449
10.0837 15.3409 1.75491 -0.72725 0.655421 0.203792
9.94379 15.1264 1.7954 -0.860393 0.494847 0.121864
9.59014 14.4305 1.90076 -0.875631 0.482681 0.0170233
9.50925 14.2579 2.22452 -0.848712 0.518958 0.101831
9.15583 13.2765 1.43478 -0.935036 0.276339 -0.222135
9.1089 13.2483 1.61664 -0.934036 0.316894 -0.164787
9.10077 13.3374 1.89055 -0.948378 0.306118 -0.0828964
8.97391 12.9228 1.78624 -0.944301 0.311984 -0.104695
8.9178 12.8606 2.16513 -0.942594 0.328455 -0.0602891
8.6634 12.0887 2.12692 -0.948283 0.2949 -0.117444
8.86832 12.5719 1.72294 -0.943702 0.301787 -0.135466
8.64284 11.8902 1.84456 -0.946668 0.283638 -0.152867
8.63965 12.1026 2.4173 -0.944832 0.317646 -0.0799554
8.75175 12.4625 2.66288 -0.936834 0.348969 -0.0237189
8.88154 12.7937 2.92863 -0.924497 0.377075 0.0558438
8.87322 12.791 2.67548 -0.933764 0.357857 0.0047456
9.03506 13.1328 3.00732 -0.896525 0.423148 0.131105
8.86222 12.6557 3.32337 -0.890416 0.431371 0.145183
8.79646 12.2796 3.90055 -0.807277 0.510578 0.295998
8.75004 12.3093 3.67524 -0.853783 0.478123 0.206041
8.31505 11.4015 3.61224 -0.935585 0.352759 -0.0155798
8.53141 11.8882 3.58412 -0.908261 0.414541 0.0567186
8.65479 12.1447 3.59792 -0.897912 0.428306 0.101524
8.71772 12.3608 3.18913 -0.918698 0.392286 0.045895
8.54859 11.9576 3.20919 -0.926828 0.375478 -0.00257523
8.38313 11.5312 3.25865 -0.943483 0.325058 -0.0646252
8.5889 12.0318 2.79411 -0.938427 0.342505 -0.045225
9.97026 6.94145 7.63924 0.564727 0.355967 0.744561
8.0175 9.82057 2.19018 -0.958619 0.242227 -0.149587
8.16373 10.4394 2.32135 -0.961023 0.256481 -0.103211
8.21247 10.4924 2.04545 -0.955315 0.256954 -0.146106
8.0567 10.0524 2.36829 -0.963684 0.251846 -0.0888081
7.84965 9.37142 2.73684 -0.968614 0.244455 -0.0450468
7.74571 8.93876 2.80841 -0.975986 0.216669 -0.0224777
7.8198 9.27726 3.07867 -0.976698 0.211521 -0.0363242
7.67927 8.61792 2.90206 -0.981059 0.193707 0.000950423
7.73277 8.83732 2.58663 -0.977905 0.202562 -0.0516734
7.75825 8.99985 3.24118 -0.982313 0.187195 -0.00443671
7.60123 8.19673 3.32276 -0.977509 0.21071 0.00879131
7.52863 7.87412 3.18985 -0.980877 0.192616 -0.0279201
7.72847 8.60325 2.29662 -0.957493 0.148729 -0.247159
7.77621 8.96756 2.41275 -0.968957 0.195436 -0.151418
7.63238 7.77012 2.44437 -0.927438 0.0336637 -0.372459
7.82275 7.91979 2.0692 -0.837747 -0.0396667 -0.544615
8.2338 10.173 1.66664 -0.919729 0.191521 -0.342663
8.24939 10.0519 1.57993 -0.883437 0.151352 -0.443433
8.21067 9.72397 1.55873 -0.845756 0.107123 -0.522706
8.35206 10.2156 1.44201 -0.847579 0.130809 -0.514294
8.41134 10.6159 1.45797 -0.886368 0.181034 -0.426121
8.4787 10.6736 1.35781 -0.830739 0.164243 -0.53188
8.58765 10.8001 1.23388 -0.789832 0.127259 -0.599976
8.41736 10.228 1.35014 -0.78699 0.0945062 -0.609684
9.0867 11.7767 0.866576 -0.621668 0.0585618 -0.781088
9.27979 12.298 0.74624 -0.628246 0.0730961 -0.774573
8.9856 11.7583 0.95949 -0.710375 0.102099 -0.696378
9.42809 12.2806 0.652148 -0.475144 0.0319659 -0.879327
9.79896 12.531 0.496233 -0.259181 -0.0150206 -0.965712
9.93946 12.1934 0.489705 -0.0771522 -0.11001 -0.990932
9.55238 11.4779 0.640082 -0.264776 -0.0672033 -0.961965
9.95103 11.7436 0.566377 0.13003 -0.169997 -0.976828
9.73917 11.5794 0.591044 -0.0881991 -0.118369 -0.989045
10.1339 11.5606 0.638295 0.311521 -0.189047 -0.931244
10.2303 11.9134 0.597308 0.300331 -0.19952 -0.932734
10.1307 12.26 0.499062 0.20054 -0.15093 -0.96799
10.3178 12.2162 0.563988 0.421988 -0.169459 -0.890623
10.3645 11.7554 0.701797 0.521098 -0.212794 -0.826545
10.4779 12.1283 0.687729 0.561102 -0.212759 -0.799936
10.4462 12.6238 0.56698 0.502437 -0.105385 -0.858167
10.5479 13.0412 0.598003 0.62096 -0.0486315 -0.782333
10.4084 12.9707 0.513011 0.431211 -0.0632798 -0.90003
10.4565 13.4104 0.515218 0.487862 -0.0174959 -0.872746
10.669 13.4889 0.687238 0.738861 -0.0321465 -0.67309
10.8079 14.3958 0.81621 0.778071 -0.0798213 -0.623084
10.7882 14.1127 0.829594 0.848906 -0.0337068 -0.527468
10.6064 14.1667 0.630972 0.614491 0.0190932 -0.788692
10.9012 14.2879 1.02163 0.90733 -0.144409 -0.39484
10.8866 13.6641 1.07813 0.936595 -0.0296274 -0.34916
10.9605 13.5643 1.32893 0.969642 -0.0267886 -0.243059
10.799 13.4381 0.884442 0.879584 -0.0207133 -0.475292
10.3159 12.0388 4.66864 0.482246 0.441088 0.756889
10.9819 12.9096 1.50272 0.986011 -0.0427462 -0.161107
10.996 12.3733 2.36363 0.989093 -0.128113 -0.0726739
11.0353 13.1811 1.88721 0.994572 -0.0532966 -0.0893595
11.0287 12.8683 2.14194 0.995515 -0.079064 -0.0519426
11.0724 13.8207 1.91991 0.993807 -0.0641361 -0.0907436
11.0613 13.3792 2.12482 0.99848 -0.0323238 -0.0446305
11.0995 14.093 1.89949 0.979284 -0.18139 -0.0900032
11.1096 14.2899 1.70363 0.958371 -0.20033 -0.203454
11.1869 15.2037 1.65519 0.887235 0.461001 -0.0170791
11.0535 15.4016 1.67031 0.74559 0.665185 0.0403162
10.9826 15.3629 1.96456 0.651623 0.682529 0.33097
10.7349 15.6358 1.68803 0.296341 0.940794 0.164589
10.8231 15.518 1.89852 0.479908 0.789412 0.382775
10.2858 15.5308 1.68995 -0.480902 0.847484 0.224731
10.5829 15.6238 1.77003 -0.224692 0.912149 0.342779
10.5453 15.6771 1.49534 -0.273722 0.961801 -0.0039227
10.2215 15.5197 1.42419 -0.535078 0.841675 -0.072628
9.23951 13.7015 1.57446 -0.945667 0.300694 -0.123682
9.34744 13.9055 1.4386 -0.911521 0.396789 -0.108109
9.37982 12.9601 0.776875 -0.712543 0.200355 -0.672414
9.43142 13.3795 0.883035 -0.783762 0.237938 -0.573675
9.52532 13.2592 0.730702 -0.67129 0.209363 -0.711011
9.10352 12.8668 1.18802 -0.889568 0.286735 -0.3556
9.21861 13.3584 1.31138 -0.89803 0.275164 -0.343259
9.32859 13.3698 1.0576 -0.877138 0.248038 -0.411224
8.98268 12.771 1.46096 -0.925554 0.298813 -0.232509
8.64528 11.7697 1.65485 -0.936556 0.266165 -0.228078
8.84344 12.4 1.56432 -0.938317 0.273138 -0.21203
8.80253 12.0979 1.41907 -0.924824 0.251695 -0.28522
8.64471 11.6219 1.50213 -0.922318 0.253348 -0.291796
8.47766 11.1694 1.64701 -0.931214 0.250094 -0.26513
8.51732 11.4545 1.81727 -0.943428 0.270289 -0.192061
8.38619 10.9571 1.78499 -0.94703 0.254363 -0.196043
8.46069 11.3447 1.97131 -0.951397 0.274799 -0.139028
8.32095 10.6175 1.70592 -0.934547 0.226181 -0.274706
8.43698 10.8622 1.52874 -0.913904 0.219741 -0.341311
8.59829 11.2199 1.36254 -0.872818 0.205492 -0.442677
8.63491 11.4843 1.42584 -0.906813 0.233653 -0.350851
9.05918 12.4416 1.03782 -0.821321 0.186381 -0.53916
8.85095 11.7869 1.14297 -0.829423 0.176371 -0.530049
8.88081 12.0405 1.19163 -0.867772 0.203155 -0.453542
8.92164 11.7668 1.03747 -0.78621 0.150824 -0.599271
9.43361 12.6544 0.669811 -0.579342 0.105153 -0.808273
9.22045 12.5075 0.828997 -0.747565 0.152906 -0.646348
9.57413 12.9781 0.624083 -0.565219 0.155703 -0.810113
10.1055 13.197 0.437556 -0.130011 0.0252862 -0.99119
9.97037 13.4134 0.486552 -0.334377 0.0870656 -0.938409
10.1723 13.7312 0.46071 -0.115439 0.0798075 -0.990103
10.4994 13.9021 0.540676 0.499418 0.0403715 -0.86542
10.3535 13.9234 0.484525 0.231555 0.0552198 -0.971253
10.4052 14.3181 0.541147 0.280394 0.111358 -0.953404
10.6646 13.9263 0.671043 0.71275 0.0117096 -0.70132
10.7738 13.7542 0.807152 0.861443 -0.0224857 -0.507356
11.195 15.094 1.4625 0.950603 0.138316 -0.277889
11.0893 15.2897 1.37493 0.820439 0.477247 -0.314825
10.9827 15.4261 1.36653 0.694559 0.646857 -0.314904
10.6523 15.6571 1.38309 0.176923 0.965402 -0.191567
10.7962 15.5993 1.43011 0.554622 0.813297 -0.175902
10.1192 15.2823 1.04604 -0.69137 0.584368 -0.424879
9.97157 15.2393 1.36053 -0.878046 0.474779 -0.0601641
10.0944 15.4012 1.36957 -0.717883 0.68317 -0.13388
9.67937 14.5881 1.52192 -0.897269 0.435202 -0.0742141
9.77926 14.8139 1.67091 -0.896573 0.441669 0.0329301
9.92423 14.0844 0.607154 -0.532544 0.22586 -0.815711
9.74103 13.6775 0.654764 -0.614807 0.187224 -0.766133
9.71989 14.0344 0.777037 -0.725843 0.242612 -0.643655
9.86016 13.6086 0.559286 -0.482247 0.133598 -0.865788
10.0666 14.0815 0.536594 -0.330707 0.168653 -0.928541
9.99634 13.779 0.513528 -0.367109 0.126866 -0.921486
9.64591 12.8143 0.563435 -0.421362 0.0686832 -0.904288
10.554 14.9243 0.655155 0.348035 0.140604 -0.926878
10.4501 14.5979 0.584965 0.146629 0.140286 -0.979193
10.4197 14.9143 0.64473 -0.200327 0.299888 -0.932704
9.62896 13.6502 0.750545 -0.70613 0.217515 -0.673846
10.9266 14.8837 0.912412 0.713643 0.0720327 -0.696796
11.0378 14.8649 1.05759 0.887405 -0.0755827 -0.454753
10.6186 15.5793 1.15088 0.284148 0.865091 -0.413373
10.4689 15.5675 1.13315 -0.281344 0.890241 -0.358212
10.779 15.4901 1.13997 0.565272 0.679707 -0.467404
10.7114 15.3156 0.898909 0.440504 0.535241 -0.720745
10.6026 15.4689 0.981445 0.22171 0.74196 -0.632724
10.4904 15.3688 0.869637 -0.141851 0.650314 -0.746305
10.2872 15.4555 1.0868 -0.499544 0.737582 -0.454345
10.2224 15.1977 0.875273 -0.478627 0.551707 -0.683034
9.96272 15.1019 1.11682 -0.829531 0.451171 -0.329125
9.89571 14.8655 1.01634 -0.850768 0.361762 -0.38121
9.8352 14.8527 1.1959 -0.904247 0.383351 -0.188095
9.66504 14.351 1.06947 -0.846024 0.381952 -0.371962
9.64563 14.4502 1.27821 -0.878338 0.434281 -0.199806
9.8568 14.602 0.897661 -0.795412 0.325941 -0.510962
9.90059 14.4055 0.738687 -0.638092 0.299076 -0.709501
9.6886 14.1827 0.890158 -0.784415 0.328404 -0.52616
10.194 14.2887 0.541719 -0.229177 0.228042 -0.946295
10.1797 14.6535 0.647217 -0.452758 0.294637 -0.841546
11.03 15.116 1.11521 0.829606 0.252335 -0.498078
10.884 15.2359 0.995667 0.674532 0.408282 -0.615071
10.7458 14.9189 0.756636 0.58863 0.160564 -0.792297
10.6082 15.0853 0.717901 0.337202 0.394517 -0.854781
10.4223 15.1839 0.763854 -0.243317 0.457304 -0.855377
10.1776 14.9998 0.786956 -0.43841 0.374603 -0.816988
10.0159 14.951 0.879352 -0.658405 0.38002 -0.649683
10.6284 14.4828 0.64728 0.554432 0.0311646 -0.831645
10.2092 13.0543 4.04622 0.237343 0.570055 0.786578
10.0822 13.2429 3.93714 0.0776066 0.602595 0.794264
10.2275 14.1243 0.494287 -0.0728344 0.14629 -0.986557
9.43876 14.0763 1.25113 -0.884975 0.419997 -0.201052
10.5448 12.1819 4.40567 0.636704 0.372476 0.675182
11.1637 14.8264 1.38121 0.944516 -0.184465 -0.271775
9.84993 12.9812 0.493481 -0.268667 0.0341388 -0.962628
9.43637 13.8971 1.08895 -0.841017 0.271733 -0.467815
9.26365 13.6558 1.40157 -0.921151 0.255895 -0.293255
9.44531 14.1639 1.64152 -0.887568 0.458069 -0.0489396
10.8953 15.5404 1.69402 0.601864 0.785602 0.14349
11.2514 14.8951 1.74928 0.995019 -0.0397974 -0.0913951
11.015 14.3216 1.31323 0.939743 -0.189049 -0.284856
10.9304 14.0498 1.16655 0.952679 -0.0812725 -0.292912
11.0593 14.0278 1.66664 0.972852 -0.155987 -0.170962
11.0109 14.0345 1.44871 0.971529 -0.0759119 -0.224432
11.0108 13.458 1.59749 0.987361 -0.038518 -0.153738
10.586 13.5867 0.604295 0.627836 -0.0182788 -0.778131
10.2769 13.3086 0.446634 0.216731 0.00943265 -0.976186
10.2236 12.9451 0.441359 0.189431 -0.057994 -0.98018
9.74161 11.2742 0.622379 0.0221722 -0.122494 -0.992222
10.2848 12.6432 0.495269 0.299353 -0.110368 -0.947738
10.0398 12.6027 0.450666 -0.043025 -0.0476405 -0.997937
9.21828 12.8475 0.957511 -0.824915 0.244527 -0.50963
9.02664 12.5736 1.14943 -0.87819 0.240425 -0.413495
8.85437 12.1001 1.28147 -0.900834 0.230787 -0.367743
8.9237 12.4901 1.36644 -0.915784 0.262926 -0.30366
8.75482 11.1971 1.11145 -0.781801 0.147503 -0.60583
8.07149 9.93566 2.0419 -0.953292 0.226988 -0.199275
8.2192 10.4283 1.92243 -0.947137 0.238475 -0.214618
8.15919 10.1075 1.84666 -0.939503 0.215435 -0.266312
8.02312 9.60971 1.94307 -0.940637 0.204129 -0.27117
7.88797 9.31247 2.20926 -0.955907 0.224207 -0.189667
7.91542 9.53645 2.41498 -0.963475 0.251778 -0.0912349
7.81499 9.16553 2.45765 -0.968962 0.233676 -0.0806693
7.64202 8.38695 2.65992 -0.984545 0.167269 -0.0518873
8.31908 10.961 2.21339 -0.956915 0.267689 -0.1125
8.48631 11.5643 2.27576 -0.952202 0.282647 -0.115856
10.9135 15.3041 2.13955 0.521341 0.6631 0.537123
11.0778 13.0818 2.60039 0.999841 0.00888931 -0.0154904
11.0655 13.0806 2.39337 0.993276 -0.0754559 -0.0877984
11.0623 12.5165 2.79131 0.986634 -0.122663 -0.107267
10.163 10.298 0.93929 0.521766 -0.222847 -0.823468
9.94757 9.63748 1.02347 0.419331 -0.287228 -0.861198
9.76723 9.95876 0.876712 0.253525 -0.245257 -0.935721
9.17187 11.5377 0.794082 -0.502528 0.0166686 -0.8644
7.65227 8.40829 3.72912 -0.982504 0.185468 -0.01696
9.02668 12.9893 3.30017 -0.85878 0.459153 0.227324
9.20184 13.3824 3.15416 -0.815214 0.500745 0.290998
9.24483 13.6007 2.86072 -0.867666 0.463255 0.180415
9.32358 13.8287 2.60202 -0.875112 0.459596 0.151492
9.19478 13.5717 2.6008 -0.897262 0.429265 0.103212
10.2953 15.2168 2.24607 -0.387982 0.704227 0.594588
10.4874 15.2383 2.31825 -0.210947 0.712618 0.669086
10.8979 14.5292 2.60175 0.704724 0.228864 0.671555
11.0679 12.1921 3.16379 0.986831 -0.120481 -0.107931
