18.1115 -1.58932 1.68656 0.275552 -0.565597 0.777285
17.7603 -1.80466 1.58744 0.00797442 -0.700282 0.713822
18.2541 -1.86836 1.45717 0.304597 -0.508326 0.805497
18.4798 -2.18776 1.18318 0.269027 -0.562896 0.78152
18.3069 -2.50266 0.753349 -0.0758807 -0.923928 0.374966
18.0789 -2.28595 1.09989 -0.220389 -0.868713 0.443584
19.049 -1.99968 0.949833 0.568679 -0.520156 0.637214
18.6915 -2.17941 1.09074 0.464318 -0.554263 0.690797
18.7713 -2.3675 0.828615 0.451056 -0.719948 0.527469
19.331 -1.67693 0.907234 0.670603 -0.435402 0.600597
19.0788 -1.62679 1.17235 0.579518 -0.360829 0.730727
20.3819 0.39699 0.510208 0.819478 -0.229336 0.525224
19.8708 -0.454331 0.866138 0.777686 -0.244216 0.579279
20.0807 -0.491348 0.540671 0.822542 -0.26443 0.503489
20.9751 1.12186 -0.413292 0.946427 -0.187444 0.262947
20.94 0.426331 -0.794559 0.962795 -0.199307 0.18249
21.0349 1.17085 -0.629046 0.961188 -0.183923 0.205647
21.1246 1.88251 -0.38369 0.942868 -0.215835 0.253802
21.1455 1.67467 -0.663795 0.959366 -0.201486 0.197536
21.0711 1.08595 -0.903411 0.968014 -0.186671 0.16764
21.3299 1.56479 -1.67156 0.950954 -0.294871 0.0934701
21.1605 1.02371 -1.68314 0.957086 -0.269484 0.106603
21.1451 0.902316 -2.02538 0.957826 -0.287117 -0.0115382
20.8476 0.283405 -2.7725 0.928769 -0.349294 -0.124026
21.074 0.740842 -2.32615 0.947067 -0.287342 -0.143172
21.005 0.502793 -2.07364 0.952137 -0.292419 -0.0890283
21.2336 1.29298 -2.17396 0.958011 -0.251701 -0.137337
20.4729 -1.12114 -1.9928 0.865495 -0.497183 -0.0610623
20.2854 -1.47512 -1.49219 0.894112 -0.445753 0.043225
20.0106 -1.99435 -1.56254 0.850285 -0.523005 -0.0589958
21.2232 1.88672 -2.98354 0.918974 -0.274842 -0.282752
21.3584 2.02578 -2.64308 0.930296 -0.284734 -0.231251
21.2187 1.71642 -2.82008 0.930288 -0.25077 -0.267727
20.9284 0.972456 -3.15811 0.921803 -0.22376 -0.31656
20.8674 1.05069 -3.36305 0.893931 -0.208205 -0.396912
20.6906 0.867722 -3.65211 0.862395 -0.188725 -0.469743
20.4731 0.347697 -3.83789 0.844747 -0.204155 -0.494695
20.4569 0.818806 -4.00621 0.76217 -0.123218 -0.635543
20.4793 1.16803 -4.02239 0.685395 -0.0379299 -0.727183
20.6747 1.3175 -3.81565 0.789078 -0.100596 -0.606
20.6332 1.07054 -3.82105 0.819842 -0.144095 -0.554162
20.1271 1.6953 -4.24986 0.524273 0.135145 -0.840758
20.412 1.43273 -4.09089 0.638886 0.0438298 -0.768052
21.5355 3.8887 -2.80519 0.901992 -0.057369 -0.427924
21.3633 3.97987 -3.09083 0.779814 -0.0259238 -0.625474
18.6383 2.26892 -4.63123 0.313106 0.262945 -0.912592
19.1443 1.74499 -4.5898 0.310588 0.227489 -0.922921
16.4892 3.34729 -4.93205 0.27985 0.409314 -0.868416
17.1633 3.45035 -4.69024 0.271845 0.292404 -0.916843
16.0285 3.05249 -5.23291 0.267078 0.434077 -0.860376
16.6033 2.7251 -5.21935 0.274759 0.4252 -0.862388
15.6663 3.36112 -5.18826 0.279554 0.306697 -0.909828
15.2468 3.6593 -5.19677 0.230633 0.24352 -0.942076
16.2474 3.54175 -4.95408 0.271878 0.0962012 -0.957511
14.3768 5.13367 -4.92716 -0.433767 0.0890164 -0.896617
14.4453 6.39641 -4.87359 -0.347004 0.0599311 -0.935947
14.1888 6.42379 -4.74771 -0.549329 0.0417667 -0.834562
13.9736 5.76421 -4.63244 -0.606377 0.0426758 -0.794031
13.6389 6.30805 -4.32789 -0.668946 0.0371237 -0.742384
13.324 6.28729 -3.90122 -0.86091 0.0678903 -0.504207
13.1045 5.40545 -3.67246 -0.892102 0.155378 -0.424278
13.417 6.95512 -3.93667 -0.852438 0.0893576 -0.515135
14.1054 7.24634 -4.66337 -0.575763 0.0403196 -0.816622
13.6852 7.46378 -4.28612 -0.720136 0.0859742 -0.688485
13.498 7.69486 -3.77597 -0.965811 0.181083 -0.185523
13.6185 7.86527 -4.06403 -0.925859 0.173008 -0.335937
13.3782 7.23685 -2.62519 -0.870247 0.266021 0.414613
13.5961 7.71564 -2.47668 -0.802102 0.291982 0.520941
13.5629 6.954 -2.09414 -0.700268 0.312242 0.641973
14.559 6.3485 -1.33436 -0.208103 0.402808 0.891313
13.8651 6.56396 -1.63729 -0.350391 0.393241 0.850051
14.3643 7.14354 -1.70999 -0.333612 0.316054 0.888152
15.0946 6.61497 -1.38162 -0.104858 0.328642 0.938616
14.2716 5.0791 -0.616415 0.0101343 0.54885 0.835859
14.781 5.67851 -1.00659 -0.0241892 0.457445 0.888909
13.3763 4.83548 -0.66712 -0.501014 0.556485 0.662805
12.9081 3.81426 -0.412253 -0.77729 0.361591 0.514852
13.4798 3.84572 0.229547 -0.573091 0.468217 0.672562
14.8319 4.49937 -0.144633 0.0321467 0.697832 0.71554
14.2772 4.46984 -0.116203 -0.0327436 0.660645 0.749984
16.2677 4.61581 -0.29229 -0.155039 0.728426 0.667352
17.591 3.86896 0.989559 -0.281591 0.637122 0.717483
18.0845 3.81545 1.24206 -0.296956 0.589412 0.751273
18.0334 3.34713 1.58773 -0.259187 0.559078 0.787562
17.4256 3.03642 1.59423 -0.212508 0.571043 0.792937
17.5291 2.37479 2.12636 -0.0806346 0.647167 0.758072
18.0072 2.4307 2.15822 -0.173832 0.524134 0.833706
18.2378 2.4687 2.14607 -0.0174735 0.419612 0.907535
18.2653 2.00756 2.3492 0.259295 0.284744 0.922869
18.3461 1.84624 2.35967 0.400572 0.105066 0.910221
17.7252 -1.0233 2.22474 0.247721 -0.45942 0.852976
17.6681 -0.0674883 2.57815 0.214064 -0.170522 0.961821
17.8234 -2.28586 0.949418 -0.342756 -0.800906 0.490987
17.4643 -1.8528 1.38045 -0.340795 -0.775531 0.531424
18.8717 -2.66009 0.0510883 0.21728 -0.958999 0.181961
18.6473 -2.59075 0.462696 0.205175 -0.909779 0.360839
18.549 -2.66041 0.247905 -0.0256415 -0.983997 0.176328
19.0401 -2.49871 0.376491 0.452402 -0.793632 0.406793
19.6673 -1.52336 0.597629 0.747529 -0.421335 0.513495
19.5148 -1.32896 0.914629 0.690484 -0.318021 0.649688
19.2009 -2.14235 0.668206 0.633155 -0.554681 0.539855
19.3514 -2.19924 0.408168 0.693672 -0.555697 0.45828
19.78 -1.77222 0.172922 0.778116 -0.456107 0.431859
19.6155 -2.12011 0.0652057 0.733986 -0.578335 0.35608
20.1794 -0.698189 0.230674 0.856793 -0.292238 0.424857
19.8989 -1.0361 0.551325 0.81383 -0.30228 0.496293
19.9096 -1.38034 0.293004 0.847196 -0.346785 0.402492
20.4379 0.139325 0.278269 0.855614 -0.275113 0.43845
20.7023 0.214203 -0.236106 0.883825 -0.285674 0.370463
21.0598 0.855853 -1.13576 0.971936 -0.207946 0.109994
21.0022 0.468288 -1.36179 0.972638 -0.217854 0.0807119
21.081 0.755622 -1.60004 0.971632 -0.234617 0.0297635
21.308 1.63455 -2.30569 0.948524 -0.278568 -0.150674
21.0713 0.99688 -2.70652 0.948141 -0.249373 -0.197081
21.2738 1.65358 -2.52268 0.941265 -0.265268 -0.208934
21.1259 1.3573 -2.82659 0.937416 -0.22649 -0.264487
21.5449 2.30523 -2.20133 0.945503 -0.293588 -0.140822
21.512 2.08683 -1.7137 0.947053 -0.320741 0.0147014
21.3484 1.65002 -2.04772 0.953818 -0.292552 -0.0681453
20.7684 0.688311 -3.40319 0.893597 -0.215348 -0.393841
20.6544 0.175139 -3.3734 0.897323 -0.23819 -0.371587
20.061 0.285485 -4.32834 0.629268 -0.136191 -0.765163
20.2194 0.178551 -4.13645 0.761578 -0.187742 -0.620283
20.016 0.0113489 -4.29698 0.618466 -0.252516 -0.744134
20.1408 0.629435 -4.31276 0.63748 -0.0529814 -0.768643
19.7087 0.61495 -4.61263 0.477772 -0.0173557 -0.878312
20.1316 0.979956 -4.31763 0.557001 0.0567558 -0.82857
18.5476 0.211839 -5.05887 0.239403 -0.239261 -0.940979
19.0212 0.129973 -4.88197 0.350219 -0.2206 -0.91032
18.8736 -0.153955 -4.84197 0.234383 -0.363068 -0.901802
18.1158 0.560819 -5.22347 0.152957 -0.136165 -0.978807
18.8824 0.442243 -4.99175 0.36519 -0.0668651 -0.928528
18.185 0.740168 -5.21569 0.254973 0.0515879 -0.965571
17.7018 0.989192 -5.2884 0.183958 0.065082 -0.980777
18.0221 1.12596 -5.19503 0.287124 0.18295 -0.94026
18.6687 0.775182 -5.06658 0.351865 0.10981 -0.929587
18.5942 3.13558 -4.45487 0.129187 -0.0443012 -0.99063
19.3533 0.831708 -4.77007 0.421432 0.154195 -0.893655
19.7579 1.26173 -4.49069 0.408275 0.164053 -0.897997
20.1666 1.3782 -4.27044 0.511097 0.0814876 -0.855651
19.4493 1.26108 -4.62721 0.353138 0.269045 -0.896051
17.8763 1.94823 -5.04714 0.356763 0.277799 -0.891935
17.4712 1.96063 -5.20186 0.312115 0.231208 -0.921481
17.1355 2.56174 -5.12236 0.3294 0.354398 -0.875156
17.0746 2.04146 -5.30341 0.258911 0.218833 -0.940786
16.4448 2.52999 -5.34311 0.264948 0.295513 -0.917864
15.5513 2.84916 -5.42093 0.0211837 0.202143 -0.979127
15.0485 2.7589 -5.42012 -0.167441 0.0547434 -0.984361
14.768 4.44054 -5.13108 0.0181939 0.128969 -0.991482
14.638 4.05843 -5.17618 -0.139877 0.119966 -0.982875
14.2384 4.68075 -4.99236 -0.28744 0.145164 -0.946734
13.919 5.47036 -4.63365 -0.60182 0.114353 -0.790402
13.676 5.53207 -4.43166 -0.623499 0.203951 -0.754754
13.4521 5.49837 -4.17838 -0.738647 0.1878 -0.647403
13.2397 6.61187 -3.4349 -0.981434 0.154061 -0.114245
13.161 6.25 -2.47416 -0.967102 0.206009 0.149246
13.3502 6.01305 -1.79419 -0.798445 0.363815 0.479714
13.2613 6.39134 -2.25041 -0.875174 0.35979 0.323453
13.9226 7.32754 -1.9996 -0.594006 0.339731 0.729205
14.1056 5.97131 -1.24915 -0.314111 0.528567 0.788639
13.8682 5.35444 -0.865011 -0.228202 0.57057 0.788906
13.6096 5.33103 -0.937485 -0.316808 0.585331 0.746338
13.0631 4.73168 -0.859255 -0.738644 0.454511 0.49782
12.7715 4.00054 -0.795131 -0.823127 0.341631 0.453597
13.0233 3.15693 0.162445 -0.777585 0.3207 0.540846
13.2588 3.17148 0.471932 -0.579386 0.352129 0.735062
12.7245 3.02386 -0.246277 -0.824813 0.28544 0.488066
13.57 3.49655 0.514392 -0.369668 0.421789 0.827913
14.5611 3.06085 1.04459 -0.203757 0.493916 0.845299
13.9077 3.19959 0.791764 -0.296208 0.453304 0.8407
14.0296 2.55792 1.19141 -0.52461 0.268504 0.807892
13.6065 2.31585 0.978976 -0.548265 0.221766 0.806366
14.616 4.02056 0.295592 -0.060782 0.655914 0.752385
14.2796 3.57774 0.643583 -0.0969068 0.606888 0.788857
16.2893 3.72889 0.708383 -0.157897 0.678231 0.717685
16.6726 2.74638 1.62889 -0.15442 0.626027 0.764359
16.8624 3.54897 1.02731 -0.197907 0.612823 0.765036
15.8441 2.84308 1.41062 -0.112268 0.627639 0.770367
15.0344 2.70615 1.40154 -0.141466 0.678664 0.720696
16.3441 1.81053 2.4381 -0.148461 0.535256 0.831541
15.6142 2.13371 2.10659 -0.259405 0.356799 0.897443
17.7881 1.87816 2.49021 -0.00837273 0.546339 0.837522
16.3497 2.31641 2.01356 -0.0799464 0.695803 0.71377
21.405 7.80754 -0.124287 0.625276 0.130618 0.769395
21.5823 7.84764 -0.297378 0.725903 0.0784616 0.683307
17.2655 1.55233 2.67398 0.0852238 0.254182 0.963394
17.8629 1.57831 2.586 0.358835 0.0839631 0.929617
21.1271 7.30057 0.167112 0.520726 0.187729 0.832828
21.3295 8.09506 -0.116442 0.542623 0.170329 0.822525
18.2812 1.16329 2.41212 0.410142 -0.00815021 0.911985
17.5352 0.972492 2.69008 0.317425 -0.0334086 0.947695
17.9959 0.848836 2.50234 0.341822 -0.0624171 0.93769
17.0403 0.167042 2.67912 -0.169675 -0.062464 0.983519
17.2666 0.000405112 2.66085 0.134677 -0.101019 0.985727
17.2128 1.02988 2.75588 -0.112335 -0.0535653 0.992226
16.7274 0.621061 2.60916 -0.33036 -0.0283188 0.94343
16.8085 0.0275556 2.51852 -0.457462 -0.282368 0.843206
17.2409 -1.45374 1.8208 -0.547988 -0.705047 0.450131
17.1239 -1.86647 0.869072 -0.657195 -0.642665 0.393799
17.4966 -2.19808 0.807344 -0.43994 -0.853362 0.279691
18.0291 -2.54365 0.356116 -0.207914 -0.953486 0.218256
20.2353 -0.818134 0.00986431 0.876749 -0.315744 0.36279
20.0506 -1.35091 -0.0224187 0.872092 -0.351565 0.340379
20.4328 -0.285414 -0.0161963 0.874368 -0.303382 0.378736
20.5951 -0.176535 -0.320438 0.889504 -0.326848 0.319301
20.7598 -0.385204 -1.22423 0.922353 -0.361808 0.135497
20.8261 0.0295035 -0.76693 0.908722 -0.327428 0.258873
20.5961 -0.695067 -1.03695 0.905855 -0.37606 0.194948
20.8726 0.0599132 -0.945265 0.959799 -0.257928 0.110718
20.8453 -0.182545 -1.3618 0.957302 -0.278917 0.0760182
20.8369 -0.273321 -1.7968 0.935781 -0.350656 -0.0367956
20.9181 -0.0323077 -1.7831 0.971553 -0.23516 -0.0280007
20.5665 -0.43399 -2.85006 0.935976 -0.283118 -0.209266
20.9048 0.160351 -2.12046 0.945851 -0.252576 -0.203891
20.6889 -0.479898 -2.38465 0.938174 -0.262703 -0.225427
20.7267 -0.0283781 -2.76013 0.933353 -0.325561 -0.151206
20.7825 0.270459 -3.08528 0.929944 -0.298219 -0.215104
20.9032 0.717735 -3.06563 0.925264 -0.225978 -0.304663
20.4515 0.00341397 -3.71384 0.853312 -0.233562 -0.466162
20.3868 -0.439501 -3.59742 0.8829 -0.285787 -0.372577
19.5694 0.0915549 -4.6309 0.47774 -0.168469 -0.862197
19.6489 -0.402413 -4.42779 0.531222 -0.288802 -0.79649
19.2723 -0.274856 -4.67043 0.370663 -0.314184 -0.874012
19.5522 -0.671472 -4.37371 0.439967 -0.387948 -0.809892
19.5619 -0.90279 -4.23594 0.513831 -0.528197 -0.676007
19.3866 -0.848799 -4.35158 0.290827 -0.529103 -0.797164
18.4819 -0.00784861 -4.98741 0.0790836 -0.477943 -0.874824
18.8652 -0.472753 -4.67168 0.0692247 -0.530879 -0.844615
18.3062 -0.442183 -4.70661 -0.0160531 -0.580681 -0.813973
19.4118 2.48982 -4.36205 0.276078 0.158163 -0.948032
17.4223 0.960713 -5.32883 0.100904 -0.0224451 -0.994643
17.2074 0.874127 -5.32311 -0.0193499 -0.257879 -0.965984
16.7711 1.95358 -5.3896 0.182692 0.11753 -0.97612
15.958 2.33488 -5.46216 0.0543042 0.0976428 -0.993739
15.7592 1.74062 -5.43016 -0.0652139 -0.0836175 -0.994362
14.4743 3.63978 -5.20152 -0.241151 0.120507 -0.962977
14.8777 3.27949 -5.33661 -0.0850643 0.196754 -0.976756
14.0979 4.08077 -5.00819 -0.414581 0.0837046 -0.906155
13.794 4.5378 -4.80028 -0.529951 0.108376 -0.841075
13.3562 5.09863 -4.2074 -0.723552 0.216276 -0.655513
12.8872 5.22108 -3.13057 -0.934399 0.228381 -0.273386
13.1032 6.00818 -3.02635 -0.977656 0.204783 -0.0474605
12.8664 5.41627 -2.55322 -0.945353 0.312666 -0.0924573
13.0324 5.82837 -2.38225 -0.921031 0.384646 0.0612363
13.092 5.66789 -1.83891 -0.785082 0.503651 0.360531
12.7745 4.57565 -1.24979 -0.886945 0.306545 0.345483
12.5469 3.25807 -0.754005 -0.907626 0.197943 0.370179
14.0872 2.26572 1.35002 -0.624051 0.143192 0.768151
15.0552 3.31604 0.933978 -0.10932 0.589996 0.799971
16.011 3.58766 0.807792 -0.0747093 0.709956 0.700272
15.3595 3.87132 0.461941 -0.0423378 0.683279 0.728929
14.5938 2.44103 1.51066 -0.290334 0.631629 0.718854
15.2717 2.35867 1.8159 -0.192314 0.678917 0.708581
20.9639 7.40753 0.230008 0.379861 0.231502 0.895607
16.991 1.22877 2.70497 -0.239055 0.114528 0.964228
16.2982 0.913896 2.45219 -0.342554 -0.0366164 0.938785
17.2039 -0.433 2.51386 -0.469372 -0.439632 0.765776
16.9412 -0.907009 1.98552 -0.584245 -0.454731 0.672218
17.0431 -1.20214 1.89593 -0.495169 -0.529569 0.688741
17.1403 -1.65712 1.24932 -0.734634 -0.64127 0.221553
16.9277 -1.67145 0.796383 -0.776117 -0.489571 0.397444
16.7954 -1.7792 0.282605 -0.763898 -0.608251 0.215618
16.5048 -1.34348 0.285344 -0.865626 -0.396037 0.306343
17.5626 -2.3854 0.0988385 -0.447236 -0.880956 0.154586
18.7147 -2.72026 -0.393325 0.0157393 -0.998697 0.0485412
18.8923 -2.6972 -0.624382 0.0868217 -0.995605 -0.0351107
19.1435 -2.63709 -0.36504 0.311556 -0.947802 0.0678612
19.1631 -2.58743 -0.0984146 0.421155 -0.884909 0.198909
19.4554 -2.46654 -0.423138 0.592657 -0.799892 0.0945025
19.2592 -2.49377 0.0566168 0.625969 -0.715714 0.309705
19.8786 -1.8613 -0.169529 0.848533 -0.446093 0.284591
19.6448 -2.26802 -0.308306 0.730722 -0.648475 0.213367
20.3173 -0.852382 -0.237139 0.889115 -0.329863 0.317277
20.0731 -1.44388 -0.190543 0.89009 -0.370155 0.265941
20.4168 -0.825547 -0.52078 0.898817 -0.356833 0.254555
20.2165 -1.35869 -0.594904 0.89539 -0.394103 0.207268
20.6003 -0.811203 -1.40693 0.908187 -0.408607 0.0907583
20.5549 -0.955409 -1.68749 0.904767 -0.424709 0.0319388
20.7394 -0.511544 -1.62124 0.927477 -0.371119 0.0453643
20.7764 -0.346537 -2.14239 0.943965 -0.297297 -0.143331
20.4899 -0.813074 -2.78923 0.919967 -0.33932 -0.196272
20.3514 -0.897739 -3.25047 0.908591 -0.31511 -0.274169
20.5081 -0.302386 -3.36087 0.922785 -0.306017 -0.234139
20.254 -0.96499 -3.39373 0.791632 -0.384257 -0.475042
20.2514 -0.568549 -3.76819 0.794155 -0.35597 -0.492547
19.9182 -0.62132 -4.12233 0.616128 -0.393236 -0.68246
19.7732 -1.16666 -3.79196 0.608584 -0.495959 -0.619394
19.2907 -1.14034 -4.1579 0.210035 -0.583637 -0.784381
19.2604 -1.36101 -4.01816 0.17235 -0.611335 -0.772376
19.4934 -1.24366 -3.99491 0.487044 -0.540737 -0.685851
19.0573 -1.03415 -4.25485 0.0150966 -0.563198 -0.826184
18.8907 -1.3074 -4.07751 -0.0966431 -0.659618 -0.745362
18.5428 -1.06378 -4.21736 -0.0267506 -0.618794 -0.785098
19.2301 -0.756659 -4.454 0.0878053 -0.562951 -0.821813
16.7593 1.46268 -5.3997 0.0531708 -0.0823252 -0.995186
16.1701 1.62559 -5.43468 -0.044924 -0.161213 -0.985897
14.7502 2.81537 -5.35399 -0.385342 -0.127503 -0.913923
14.129 3.32457 -5.09912 -0.450624 -0.072332 -0.889779
13.9537 3.7952 -4.93812 -0.485532 0.12385 -0.865401
13.5725 4.2737 -4.58517 -0.770705 -0.00285152 -0.637185
12.8482 5.34371 -2.07143 -0.916871 0.380711 0.120026
12.6174 3.97169 -1.21823 -0.945547 0.260547 0.195078
12.3664 3.08479 -1.60049 -0.982761 0.152184 0.104977
12.4237 3.14759 -1.15506 -0.965935 0.145292 0.214147
12.5633 3.53754 -0.911297 -0.87039 0.292744 0.39588
12.3643 2.51868 -1.01168 -0.937071 0.184963 0.296118
12.7226 2.38658 0.0344357 -0.827834 0.212806 0.519042
12.6801 1.75039 0.127843 -0.849391 0.0964846 0.51887
12.5436 1.15328 -0.0215739 -0.896301 0.0716435 0.437621
13.2463 1.97384 0.748024 -0.605013 0.00689136 0.796186
14.956 2.04658 1.94974 -0.40881 0.183837 0.893912
15.9383 0.757669 2.28216 -0.339309 -0.117953 0.93325
14.7667 1.20238 1.83621 -0.43083 -0.0735113 0.899434
15.6603 0.671889 2.13331 -0.344933 -0.647235 0.679786
16.0562 0.375772 2.03605 -0.527373 -0.676468 0.514071
15.7483 0.393625 1.79143 -0.243617 -0.851506 0.464315
16.1916 -0.584364 0.320216 -0.847717 -0.390829 0.358647
15.91 -0.450052 -0.469763 -0.864322 -0.479544 0.151611
16.689 -1.73491 -0.15858 -0.719154 -0.694796 -0.00879723
16.4089 -1.35771 -0.0575623 -0.811951 -0.580289 0.0632477
16.6438 -1.62752 -0.828802 -0.693264 -0.706214 -0.143687
17.7995 -2.50382 -0.175703 -0.347818 -0.936235 0.0498636
18.4746 -2.69195 -0.578525 -0.158501 -0.985899 -0.0536628
18.7765 -2.67928 -0.991513 -0.0301993 -0.994414 -0.101142
19.092 -2.65717 -0.781568 0.191028 -0.981026 -0.0330974
19.2428 -2.60716 -0.793108 0.451547 -0.892247 0.000720592
20.0512 -1.89931 -1.08187 0.879062 -0.467379 0.0938443
20.4477 -1.06904 -1.10465 0.900885 -0.416383 0.122598
20.5367 -0.925107 -2.31576 0.918973 -0.371385 -0.132521
20.0798 -1.00745 -3.61436 0.675071 -0.446726 -0.587124
20.1346 -1.29942 -3.37155 0.770044 -0.426678 -0.474319
19.9725 -1.39584 -3.47572 0.593279 -0.491825 -0.637282
19.3467 -1.835 -3.52388 0.159043 -0.742132 -0.65111
19.4409 -1.63157 -3.69923 0.304995 -0.649283 -0.696713
19.6396 -1.81307 -3.41908 0.459974 -0.664505 -0.588946
19.5828 -1.56592 -3.66243 0.518177 -0.538712 -0.66429
19.1155 -1.83853 -3.53131 -0.101283 -0.766685 -0.633984
18.8476 -1.43844 -3.9337 -0.174939 -0.732885 -0.657477
19.1536 -1.51332 -3.884 0.0343578 -0.716034 -0.697219
18.7533 -1.57877 -3.7252 -0.294418 -0.756711 -0.5837
18.1082 -1.07362 -4.03185 -0.406531 -0.828719 -0.384652
18.4998 -1.32417 -3.91018 -0.318847 -0.759868 -0.566513
18.4073 -1.31669 -3.83314 -0.468145 -0.767078 -0.43867
17.7527 -0.799904 -4.28883 -0.221822 -0.800443 -0.556854
18.2446 -1.05023 -4.16929 -0.229168 -0.77161 -0.59338
18.0055 -0.693209 -4.51089 -0.0755885 -0.662187 -0.745516
17.5613 -0.560683 -4.558 -0.0877683 -0.594893 -0.798999
16.1469 0.149419 -4.80321 -0.197734 -0.672905 -0.712812
16.3106 0.593082 -5.08239 -0.134514 -0.482612 -0.865443
16.9798 0.0872797 -4.8978 -0.116414 -0.480705 -0.869121
17.3285 0.392924 -5.12725 -0.0963767 -0.468747 -0.878059
18.2746 -0.085703 -4.94478 -0.0366084 -0.525539 -0.849982
17.8467 -0.0687817 -4.92092 -0.0815394 -0.512477 -0.854821
15.4178 1.0565 -5.17188 -0.129052 -0.420174 -0.89822
16.7397 0.940656 -5.31245 -0.0916914 -0.392231 -0.915286
15.6765 0.222822 -4.77892 -0.118338 -0.549998 -0.82674
15.0056 1.51191 -5.20232 -0.266218 -0.242281 -0.932967
14.5621 2.0572 -5.15306 -0.360828 -0.162536 -0.91836
15.327 1.91807 -5.39299 -0.211617 -0.207226 -0.955131
14.016 2.58536 -4.94978 -0.487803 -0.122893 -0.86426
12.8996 4.01847 -3.54826 -0.902326 0.125652 -0.412333
13.2967 4.4784 -4.22668 -0.86511 0.0572765 -0.498302
12.8515 4.4122 -3.21941 -0.958897 0.0959583 -0.267036
12.7818 4.63225 -2.9316 -0.944684 0.0285826 -0.326734
20.0773 2.33796 -4.15396 0.432612 0.139075 -0.890789
20.0039 2.59677 -4.16369 0.366961 0.0498863 -0.928898
12.6091 4.3782 -2.02572 -0.987217 0.129626 -0.0927393
12.7185 4.87078 -2.65634 -0.986253 0.139297 -0.0888913
12.5468 3.99993 -1.78927 -0.983227 0.176996 -0.0440151
12.7698 4.98733 -1.79623 -0.919402 0.339029 0.199397
12.633 4.39753 -1.5273 -0.923069 0.296448 0.245075
12.5336 3.69243 -2.33626 -0.97765 0.148129 -0.14919
19.7878 1.69569 -4.39957 0.344083 0.177052 -0.922095
12.3164 1.71265 -0.655904 -0.941263 0.167771 0.293049
12.7847 1.09151 0.352521 -0.700725 -0.10716 0.705338
12.9766 1.65335 0.52903 -0.680992 0.0246186 0.731877
13.5333 0.985822 0.940778 -0.548284 -0.0900515 0.83143
14.2751 0.895963 1.26846 -0.424998 -0.380259 0.82145
14.3025 1.2471 1.48112 -0.577835 -0.0817263 0.812052
15.2987 0.575241 1.8997 -0.319088 -0.742616 0.588815
16.4869 -0.235479 1.7373 -0.785312 -0.520376 0.3354
16.1679 0.195961 1.71935 -0.37452 -0.872638 0.31343
16.1891 -0.0956568 1.18273 -0.783882 -0.526726 0.32877
16.2877 -0.534791 0.774161 -0.877643 -0.465961 0.112352
16.3556 -0.555388 1.1777 -0.883241 -0.321512 0.341343
16.8306 -0.48347 2.14204 -0.769625 -0.412415 0.487433
16.6783 -1.02682 1.4673 -0.851943 -0.366525 0.373969
16.8012 -1.30779 1.12979 -0.799397 -0.583664 0.142485
16.48 -0.985736 0.595482 -0.873831 -0.409343 0.262408
16.0762 -0.29668 0.43611 -0.841694 -0.50192 0.199068
15.9308 -0.00249651 0.868683 -0.670945 -0.663993 0.330071
16.6594 -1.21889 0.804223 -0.85187 -0.511173 0.114101
15.7912 -0.0280528 0.502354 -0.172637 -0.969759 0.172525
15.8087 -0.23755 -0.0895847 -0.697867 -0.635178 0.330955
15.6887 -0.138936 -0.572991 -0.748182 -0.66347 0.00549695
15.6172 -0.0407131 0.0660952 -0.575236 -0.817669 0.022831
15.532 0.0266017 -0.493386 -0.591162 -0.804917 -0.0513424
15.6437 -0.0802939 -1.05552 -0.564953 -0.810306 0.155671
16.0439 -0.659487 -1.2952 -0.865006 -0.494646 -0.0842043
16.0703 -0.780231 -0.719556 -0.895169 -0.445482 -0.0148026
16.3032 -1.24312 -0.4856 -0.886251 -0.460618 0.0489021
16.1138 -0.779735 -0.101742 -0.896481 -0.429549 0.108673
16.219 -1.06459 -0.936401 -0.891474 -0.448642 -0.0632081
16.2827 -1.02296 -1.31559 -0.804396 -0.553314 -0.216311
17.8935 -2.41613 -0.995392 -0.434462 -0.871918 -0.225838
18.1129 -2.60407 -0.466752 -0.307532 -0.941052 -0.140873
18.1783 -2.5248 -1.06079 -0.346103 -0.903398 -0.25315
18.469 -2.61819 -1.03131 -0.231036 -0.956222 -0.179614
18.8052 -2.61891 -1.42129 -0.126298 -0.977158 -0.170914
19.321 -2.54302 -1.66521 0.354604 -0.932661 -0.0663252
19.0737 -2.63804 -1.28174 0.15476 -0.984565 -0.0817416
19.6625 -2.35323 -1.15374 0.595802 -0.802441 0.033303
19.8705 -2.16748 -1.0849 0.738111 -0.670903 0.0712782
19.9199 -2.00824 -0.605167 0.852699 -0.490748 0.17908
20.15 -1.49144 -3.0527 0.821865 -0.543935 -0.169329
20.191 -1.36803 -3.15602 0.884764 -0.409612 -0.222284
20.3058 -1.33551 -2.5352 0.876314 -0.467617 -0.11579
20.488 -1.07427 -2.17074 0.899114 -0.429733 -0.0832057
20.636 -0.769802 -1.88916 0.923023 -0.382824 -0.0383898
19.9118 -1.70923 -3.22614 0.677183 -0.594482 -0.433605
18.9389 -1.92938 -3.35861 -0.258166 -0.795716 -0.547892
18.5603 -1.67814 -3.45721 -0.470666 -0.727574 -0.499108
18.2357 -1.35066 -3.58199 -0.510026 -0.75553 -0.411153
16.2326 -0.26508 -3.92342 -0.0978596 -0.986677 -0.129969
15.7718 -0.0795613 -4.45813 -0.0119061 -0.909803 -0.414868
15.3528 -0.329933 -4.02685 0.117225 -0.905879 -0.406992
15.3845 -0.0240006 -4.54147 0.0247363 -0.740021 -0.672129
14.2604 0.567531 -4.70634 -0.329048 -0.248712 -0.910972
13.7387 2.82432 -4.78581 -0.643511 -0.068472 -0.762368
13.5012 3.00235 -4.55866 -0.769267 -0.0175023 -0.638687
13.1488 3.50693 -4.09063 -0.783279 0.0144965 -0.621501
13.7022 3.70662 -4.74093 -0.727849 0.0565905 -0.683399
13.1845 3.9026 -4.13382 -0.778319 0.0785904 -0.622931
12.1752 1.77 -1.15415 -0.954319 0.177698 0.240204
12.2682 2.53485 -1.64057 -0.98089 0.192087 0.0309413
12.8987 0.476563 0.32875 -0.63887 -0.297738 0.709364
14.0517 0.746663 1.11065 -0.353063 -0.372619 0.858197
14.5745 0.60391 1.20125 -0.518115 -0.729796 0.446043
14.83 0.927646 1.85053 -0.656505 -0.270905 0.703997
15.03 0.754118 1.91009 -0.55712 -0.552179 0.620254
15.0587 0.227062 1.14743 -0.436379 -0.827351 0.353643
15.0562 0.42418 1.55792 -0.550917 -0.686446 0.474639
15.4766 0.154333 1.05956 -0.0963739 -0.939504 0.3287
15.8759 -0.198931 -1.89748 -0.594854 -0.784046 -0.177258
16.0892 -0.427584 -1.8508 -0.721633 -0.677534 -0.142103
15.8662 -0.319516 -1.35459 -0.76801 -0.584822 -0.261042
16.144 -0.410701 -2.18995 -0.68395 -0.706945 -0.180113
16.3821 -0.841833 -1.72279 -0.726553 -0.559876 -0.398322
16.723 -0.98381 -1.94646 -0.567971 -0.656798 -0.49601
16.4299 -1.16732 -1.36054 -0.620547 -0.623013 -0.47621
16.8112 -1.53249 -1.39818 -0.623476 -0.692305 -0.363307
16.9724 -1.93809 -0.73484 -0.569368 -0.766427 -0.297339
16.9857 -1.30547 -1.84182 -0.579721 -0.610393 -0.539763
17.2424 -1.77012 -1.46814 -0.492813 -0.756548 -0.429849
17.6654 -2.16285 -1.26827 -0.482752 -0.790557 -0.376789
17.9038 -2.11616 -1.63035 -0.52317 -0.758502 -0.388547
17.3254 -2.20784 -0.635397 -0.5196 -0.813118 -0.262404
18.6098 -2.54811 -1.51159 -0.313084 -0.914826 -0.255093
18.8172 -2.5435 -1.76603 -0.233878 -0.945283 -0.227468
19.0499 -2.59127 -1.66665 0.0292194 -0.987667 -0.15382
18.9627 -2.51645 -2.05728 -0.164562 -0.963127 -0.212851
19.2848 -2.52219 -1.96474 0.159989 -0.973931 -0.160814
19.2216 -2.46285 -2.32426 0.0955865 -0.958973 -0.266896
19.3904 -2.28301 -2.72931 0.308819 -0.888708 -0.338863
19.4873 -2.40759 -2.22862 0.423024 -0.880739 -0.212956
19.6593 -2.3761 -1.73453 0.515571 -0.856078 -0.0362966
19.8152 -2.23834 -1.78226 0.735463 -0.674151 -0.0679316
19.8944 -2.01598 -2.26716 0.829913 -0.545331 -0.117721
20.0155 -1.7611 -2.70741 0.804251 -0.581515 -0.122559
19.9254 -1.79308 -3.0196 0.730379 -0.649795 -0.210506
19.7379 -2.16221 -2.41981 0.721057 -0.668259 -0.183051
19.7096 -1.98095 -3.0826 0.562036 -0.768091 -0.306842
19.6367 -2.30838 -2.24883 0.606598 -0.770688 -0.195138
19.302 -2.04475 -3.25949 0.041266 -0.836308 -0.546704
17.7777 -0.987473 -3.77033 -0.463655 -0.854315 -0.234882
17.2736 -0.817482 -3.35473 -0.512349 -0.824822 -0.239098
17.351 -0.749685 -3.93188 -0.448356 -0.887564 -0.105865
16.6287 -0.359355 -4.16574 -0.399995 -0.910147 -0.107877
17.0407 -0.539207 -4.29961 -0.416951 -0.886481 -0.200756
16.3252 -0.171568 -4.3908 -0.21652 -0.84719 -0.485168
16.4288 -0.264037 -3.52824 -0.233811 -0.944424 0.231076
16.0146 -0.0455424 -2.96971 0.168024 -0.945155 0.28009
16.1225 -0.164879 -3.38374 -0.17287 -0.951957 0.252771
15.6592 -0.316186 -3.78536 0.213302 -0.966984 0.139442
14.4402 -0.498943 -3.70414 0.0359677 -0.95512 -0.294029
14.1482 -0.502917 -3.70796 0.0280231 -0.96694 -0.253458
19.4063 1.82245 -4.49374 0.273227 0.190188 -0.942961
14.5416 -0.324421 -4.19945 -0.0161171 -0.85606 -0.516625
15.0346 -0.12359 -4.44719 0.0252786 -0.774318 -0.632291
14.574 0.287152 -4.66237 -0.115616 -0.522239 -0.844926
14.2008 -0.258222 -4.21196 -0.186936 -0.692671 -0.696608
13.7782 -0.394579 -3.81179 -0.352378 -0.736223 -0.577758
13.1965 0.482051 -4.00482 -0.673753 -0.328163 -0.662092
13.8385 1.15306 -4.69027 -0.461039 -0.19479 -0.865736
14.3772 1.45828 -4.96435 -0.412204 -0.138421 -0.900515
13.7313 1.88618 -4.70661 -0.517311 -0.0747265 -0.852529
13.9542 1.99937 -4.85717 -0.454732 -0.0927505 -0.885786
13.121 1.67628 -4.12556 -0.786338 0.0542004 -0.615415
13.3719 1.82087 -4.40037 -0.7363 0.0130483 -0.67653
13.3757 2.41136 -4.37461 -0.788079 0.0176068 -0.615323
13.0462 2.47353 -3.93947 -0.821953 0.0353723 -0.568455
13.0294 3.14 -3.92099 -0.821604 -0.0110692 -0.569951
12.8595 3.6761 -3.50786 -0.923175 0.130648 -0.361496
12.4846 2.61946 -2.92001 -0.912211 0.104963 -0.396048
12.7985 3.30122 -3.49567 -0.903276 0.0827381 -0.421006
12.6081 3.75013 -2.68331 -0.957857 0.172337 -0.229803
12.7061 3.85871 -3.017 -0.944495 0.148174 -0.293213
12.5046 3.1413 -2.7401 -0.943188 0.150222 -0.296361
12.3636 2.69162 -2.43299 -0.974235 0.178953 -0.137269
12.283 2.57417 -1.96598 -0.979829 0.18209 -0.0823313
12.2666 2.21894 -2.34547 -0.976665 0.17187 -0.128784
12.1051 1.69275 -1.6905 -0.983492 0.16789 -0.0674965
12.1285 1.2505 -1.03082 -0.975971 0.0658627 0.207707
13.227 0.529692 0.606654 -0.403318 -0.533443 0.743487
13.7646 0.182049 0.519587 0.0181867 -0.870235 0.4923
13.8193 -0.153191 -0.0160408 0.163207 -0.825805 0.539823
14.1304 0.154096 0.497373 0.0683537 -0.943803 0.323362
14.5633 0.086126 0.174178 0.0470455 -0.980948 0.188489
14.4694 0.316179 0.77029 -0.00101963 -0.890144 0.455678
14.8174 0.17443 0.559201 -0.178047 -0.975277 0.130898
15.0495 0.107344 0.000937825 -0.114803 -0.992995 -0.0279505
15.407 0.0930017 -0.462845 -0.208033 -0.97561 -0.0700584
15.3269 0.0423238 0.340789 -0.281853 -0.956185 -0.0791764
15.5629 -0.11545 -1.28942 -0.163313 -0.933282 0.319864
15.5477 -0.181091 -1.86493 0.436488 -0.899638 -0.0113479
15.7354 -0.139443 -2.02075 -0.0259826 -0.999463 0.019951
16.0766 -0.0981664 -2.54933 -0.309769 -0.909784 -0.276291
16.3324 -0.124806 -2.86785 -0.453342 -0.887762 -0.0797506
16.4011 -0.574068 -2.42019 -0.57636 -0.713701 -0.398044
17.0548 -1.10257 -2.19269 -0.645877 -0.629966 -0.431261
17.4499 -1.65809 -1.88403 -0.568414 -0.756485 -0.323475
18.2899 -2.38573 -1.61086 -0.438637 -0.833361 -0.336314
18.2949 -2.28099 -1.86333 -0.502116 -0.813191 -0.294278
18.1369 -2.14339 -1.94134 -0.546913 -0.781872 -0.299271
18.5891 -2.42454 -1.88783 -0.370151 -0.892118 -0.259065
19.1054 -2.35514 -2.65198 -0.0195681 -0.925398 -0.378491
18.8678 -2.39933 -2.44191 -0.230512 -0.924287 -0.304234
19.2251 -2.19691 -2.98387 0.0726387 -0.893207 -0.44374
19.5443 -2.048 -3.14444 0.306101 -0.840687 -0.446708
18.9292 -2.2006 -2.92217 -0.204023 -0.861104 -0.465697
18.6219 -2.25065 -2.59178 -0.41446 -0.843967 -0.340502
18.5849 -2.35778 -2.17527 -0.420897 -0.877125 -0.231295
18.1439 -2.07306 -2.17788 -0.548784 -0.796183 -0.254812
17.9732 -1.82392 -2.56176 -0.608715 -0.705427 -0.363097
18.1965 -1.95607 -2.65492 -0.545348 -0.730366 -0.411292
17.8727 -1.38252 -3.09586 -0.55998 -0.692523 -0.45479
17.5884 -1.26218 -2.91247 -0.616158 -0.686836 -0.385493
18.2264 -1.57061 -3.23151 -0.546087 -0.690663 -0.474102
17.6485 -1.11165 -3.2553 -0.600758 -0.738411 -0.306332
16.8133 -0.502986 -3.64042 -0.574177 -0.818602 0.0145184
15.8142 -0.0362386 -2.56374 0.144201 -0.987902 0.0570593
15.5308 -0.114842 -2.57658 0.299178 -0.954001 0.0193814
15.2772 -0.215001 -2.78185 0.364502 -0.925493 -0.102964
14.8689 -0.432964 -3.35933 0.245238 -0.950214 0.192227
15.6423 -0.173826 -3.10629 0.252015 -0.927719 0.275364
14.6782 -0.427283 -2.98816 0.29651 -0.94306 0.150733
13.5863 -0.628472 -3.25383 -0.0219179 -0.953881 -0.299385
13.4774 -0.0966069 -3.95517 -0.457011 -0.663792 -0.592049
13.2666 -0.377748 -3.49655 -0.58899 -0.547178 -0.594717
13.5104 1.06907 -4.46579 -0.642809 -0.0960832 -0.759977
12.8881 0.835543 -3.78332 -0.723929 -0.18932 -0.663389
12.8032 1.33704 -3.74528 -0.767091 -0.0381107 -0.640405
12.7621 1.88453 -3.64269 -0.800743 0.0656733 -0.595397
12.874 2.65563 -3.65959 -0.850652 0.109741 -0.514148
12.284 0.929261 -0.521313 -0.939406 0.0220078 0.342099
12.2086 0.4002 -0.735292 -0.954463 -0.0645949 0.291253
12.3952 0.352811 -0.350542 -0.869879 -0.205318 0.448503
12.7282 0.0243399 -0.121812 -0.719296 -0.354505 0.597443
12.5264 -0.321588 -0.603993 -0.617764 -0.497194 0.609234
13.1041 -0.500078 -0.415951 -0.24061 -0.740686 0.627288
13.4468 -0.043349 0.229091 -0.0146321 -0.798471 0.601856
14.1402 -0.0792965 -0.052338 0.208945 -0.890231 0.40476
16.3957 9.34637 -5.50096 0.337713 -0.16539 -0.926604
16.4652 8.64058 -5.34776 0.334986 -0.183022 -0.924277
16.2006 8.79935 -5.46209 0.244929 -0.18412 -0.951898
16.2416 9.37254 -5.55075 0.233062 -0.169429 -0.957589
15.9106 9.20873 -5.59466 0.152722 -0.170772 -0.973403
16.2276 9.86338 -5.64378 0.262194 -0.177892 -0.948477
16.0698 10.5498 -5.8077 0.103559 -0.0947422 -0.990101
16.3781 11.01 -5.75301 0.257214 -0.085675 -0.962549
16.271 10.5158 -5.7613 0.273974 -0.126988 -0.953317
16.72 10.9531 -5.63281 0.413562 -0.114929 -0.903193
16.6065 10.4046 -5.6287 0.413189 -0.157705 -0.896886
17.1481 10.7979 -5.36901 0.545209 -0.157808 -0.823313
17.0388 10.4768 -5.39908 0.546873 -0.1428 -0.824948
16.9873 9.72379 -5.27664 0.50444 -0.169826 -0.846581
16.5764 9.96632 -5.54344 0.392383 -0.17693 -0.902625
16.7093 9.57912 -5.40724 0.439035 -0.157951 -0.884477
16.582 9.02569 -5.36911 0.412933 -0.159979 -0.896601
16.8321 8.66001 -5.18211 0.461032 -0.156023 -0.87356
16.6444 8.38499 -5.21968 0.393475 -0.197741 -0.897817
15.098 0.0336562 -0.561845 0.226923 -0.942912 0.243766
15.261 0.101378 -0.418559 0.0201283 -0.997969 0.0604297
15.2427 -0.0327268 -0.922466 0.40047 -0.827188 0.394188
15.3174 -0.191766 -1.31039 0.400007 -0.80919 0.430355
15.0833 -0.447973 -1.61484 0.436711 -0.886271 0.154297
15.2971 -0.348916 -1.89894 0.475848 -0.869844 -0.130155
14.1598 -0.625309 -2.92792 0.325904 -0.938217 -0.116341
13.8936 -0.684086 -3.0457 0.1613 -0.975276 -0.151059
12.7443 0.114257 -3.33608 -0.709756 -0.390844 -0.586078
12.3993 1.69193 -3.03329 -0.883077 0.0822138 -0.46197
12.0442 0.710857 -1.88883 -0.986448 0.00339591 -0.164038
12.1617 1.29187 -2.44222 -0.956634 0.00101714 -0.291291
12.1193 0.29222 -2.05318 -0.961573 -0.117607 -0.248083
12.2124 0.574832 -2.49785 -0.92824 -0.153841 -0.338679
12.2058 -0.338162 -1.44143 -0.89266 -0.431008 0.13187
12.0622 0.14901 -1.41369 -0.981125 -0.193376 0.000495971
12.0471 1.0861 -1.52902 -0.991444 0.0211613 0.128806
22.0728 7.84068 -2.08075 0.984951 -0.142468 -0.097845
22.1855 8.53233 -2.07925 0.986843 -0.159632 -0.0256586
22.2956 9.27066 -2.30157 0.988601 -0.134663 -0.0673352
22.2767 9.06538 -2.04681 0.990757 -0.135084 0.0123752
22.2159 8.75655 -2.26613 0.982212 -0.170573 -0.0785134
22.243 8.92941 -1.83645 0.985021 -0.127502 0.116091
22.3077 9.46192 -1.84388 0.988039 -0.0647959 0.139931
22.1344 8.8101 -1.33196 0.963005 -0.0669863 0.261026
22.121 8.47982 -1.38789 0.979407 -0.0808785 0.184988
22.146 8.45404 -1.56459 0.985763 -0.109789 0.127349
22.1478 8.30824 -1.74361 0.989441 -0.131857 0.0601708
22.2283 9.16115 -1.55662 0.970478 -0.0742538 0.229476
22.1806 9.4654 -1.36227 0.933264 0.00460063 0.359163
22.2546 9.78975 -1.59206 0.960949 0.04201 0.273518
22.055 8.85812 -1.09605 0.929719 -0.0200546 0.367723
21.9451 8.25977 -0.853292 0.915036 -0.00665574 0.403317
21.9488 8.81494 -0.847302 0.873144 0.0299589 0.48654
21.726 6.98144 -2.83277 0.903819 -0.12199 -0.410158
13.5523 -0.434446 -0.349432 0.119344 -0.821796 0.557143
13.9052 -0.798301 -1.07019 0.304086 -0.819955 0.48498
14.6279 -0.0575171 -0.326853 0.400161 -0.795527 0.454981
14.5489 -0.664179 -1.71396 0.363292 -0.907206 0.212122
14.8035 -0.419291 -1.22221 0.487915 -0.815708 0.310739
14.8207 -0.584569 -1.86861 0.304864 -0.945013 -0.118354
14.8831 -0.347472 -2.69409 0.358294 -0.885609 -0.295502
14.7703 -0.514998 -2.32995 0.330864 -0.902727 -0.274978
14.4174 -0.633763 -2.32155 0.327745 -0.926665 -0.184052
13.6328 -0.858977 -2.25227 0.0849166 -0.985423 -0.14741
13.403 -0.833161 -2.56416 -0.035631 -0.962378 -0.269369
13.1066 -0.645456 -2.92993 -0.298571 -0.878371 -0.373256
12.8444 -0.763851 -2.27909 -0.482282 -0.832375 -0.273049
12.4145 -0.345046 -2.37351 -0.739955 -0.578701 -0.342888
12.6318 -0.196573 -2.95791 -0.709599 -0.506828 -0.489484
12.8845 -0.439831 -3.04022 -0.610816 -0.585891 -0.532574
12.6899 0.631227 -3.47023 -0.829454 -0.13235 -0.542669
12.4368 0.670115 -3.08246 -0.863512 -0.219197 -0.454203
20.7955 6.73872 0.484108 0.350092 0.190731 0.917092
12.632 2.51289 -3.27834 -0.888136 0.119479 -0.443779
12.4463 -0.656418 -1.70314 -0.81441 -0.516205 -0.265083
13.7072 -0.702619 -0.796869 0.161703 -0.860927 0.482346
13.1478 -0.845966 -0.90319 0.0195481 -0.915363 0.402155
14.6263 -0.314852 -0.793042 0.418563 -0.792157 0.444175
14.1864 -0.750718 -1.27948 0.364311 -0.926023 0.0987864
14.4501 -0.664407 -1.45217 0.343601 -0.934022 0.0976775
14.1051 -0.789904 -1.9293 0.228009 -0.965805 -0.12342
13.6744 -0.95695 -1.54327 0.222129 -0.9662 -0.130828
13.418 -1.00654 -1.48603 0.042532 -0.987574 -0.151289
12.6991 -0.811181 -1.86713 -0.363054 -0.91372 -0.182506
13.1642 -0.851897 -2.29355 -0.0913139 -0.979771 -0.178075
12.3276 -0.425548 -1.01979 -0.728757 -0.621251 0.288028
13.0923 -0.978654 -1.4516 -0.124524 -0.990152 0.0639785
12.7926 -0.811927 -1.03992 -0.474371 -0.784592 0.399234
12.3549 -0.0772521 -2.51553 -0.847399 -0.34304 -0.405263
12.3008 0.974508 -2.85247 -0.924987 -0.0898767 -0.369216
15.3743 9.42353 -5.60168 -0.252442 -0.14212 -0.957118
15.508 9.82185 -5.67646 -0.171787 -0.133893 -0.975993
15.9918 9.8614 -5.68764 0.118104 -0.1684 -0.978618
15.7359 9.94701 -5.71843 -0.0166906 -0.157623 -0.987358
15.506 10.4257 -5.77005 -0.223363 -0.139898 -0.964644
15.7309 10.5491 -5.81845 -0.0682077 -0.0417753 -0.996796
15.8051 11.2399 -5.80987 -0.137281 0.00304076 -0.990527
15.9928 11.1682 -5.81621 -0.0100603 -0.0348284 -0.999343
16.212 11.0942 -5.79105 0.145734 -0.0668302 -0.987064
16.6075 11.3415 -5.73123 0.305736 -0.157317 -0.93903
16.911 11.1915 -5.58297 0.412946 -0.205851 -0.887187
17.0087 11.7093 -5.65847 0.355791 -0.194307 -0.914143
17.3782 11.7761 -5.50201 0.455021 -0.231515 -0.859859
17.5325 11.9011 -5.44514 0.571455 -0.239718 -0.78484
17.2091 11.114 -5.40571 0.507112 -0.233111 -0.829757
17.4171 10.9683 -5.20518 0.619359 -0.242416 -0.746745
17.3534 10.6075 -5.16546 0.645478 -0.1679 -0.745095
16.8123 9.16313 -5.27552 0.503594 -0.150321 -0.850762
17.0994 9.16445 -5.08551 0.598633 -0.146748 -0.787467
21.1851 8.19979 -3.90633 0.49626 -0.129533 -0.858456
21.0852 7.67441 -3.86797 0.556791 -0.201526 -0.805836
21.5706 8.48732 -3.70154 0.629432 -0.173811 -0.757367
21.5251 8.06657 -3.62761 0.67557 -0.23774 -0.697915
21.6316 7.81339 -3.38554 0.767562 -0.281312 -0.575944
21.7277 8.13746 -3.42949 0.787209 -0.24351 -0.566573
21.7294 7.72714 -3.18956 0.839763 -0.255952 -0.478839
21.8626 7.81852 -2.98012 0.882473 -0.247109 -0.400223
21.921 7.72008 -2.76272 0.928674 -0.210329 -0.305494
21.8122 7.31366 -2.79623 0.890258 -0.220435 -0.398558
22.1927 8.80223 -2.54831 0.973485 -0.181886 -0.138724
22.1143 8.24835 -2.32368 0.976768 -0.17815 -0.119113
22.2857 9.43227 -2.70635 0.977442 -0.153774 -0.14478
22.3259 9.92972 -2.83296 0.984436 -0.110539 -0.136629
22.3005 10.0727 -3.04905 0.955355 -0.141819 -0.259198
22.3649 10.3403 -2.88374 0.988492 -0.114077 -0.0993473
22.2374 10.259 -3.3182 0.910907 -0.171266 -0.375388
22.3996 10.7221 -3.07143 0.966982 -0.180039 -0.180364
22.0858 9.18386 -3.20986 0.902768 -0.180535 -0.390406
22.0925 9.58969 -3.36062 0.865389 -0.171014 -0.471016
22.2067 9.73343 -3.17091 0.918779 -0.162536 -0.35976
21.8947 8.57362 -3.3528 0.868118 -0.194125 -0.456822
21.9227 9.02441 -3.44928 0.817564 -0.166219 -0.551325
22.1068 10.0861 -3.50418 0.820312 -0.19136 -0.538952
22.0108 9.74865 -3.53376 0.774813 -0.167154 -0.609691
21.9488 10.0934 -3.69709 0.657758 -0.198929 -0.726486
21.8987 9.84157 -3.68213 0.69128 -0.163231 -0.703909
22.1934 10.5989 -3.56581 0.84784 -0.232972 -0.476332
22.2934 10.6345 -3.38117 0.913439 -0.228893 -0.336508
22.3569 11.1334 -3.55346 0.894445 -0.258023 -0.36523
22.5345 11.7826 -3.59938 0.901069 -0.257454 -0.348988
22.5489 11.616 -3.41342 0.925092 -0.265945 -0.271067
22.7299 12.3411 -3.37634 0.971046 -0.194552 -0.138632
22.6839 12.0081 -3.15902 0.976745 -0.202154 -0.0714283
22.6432 11.9444 -3.37208 0.958362 -0.227135 -0.173065
22.5766 11.4494 -2.98485 0.975885 -0.212372 -0.0504534
22.4832 11.0341 -2.96094 0.971761 -0.220378 -0.0843451
22.5157 11.196 -2.73829 0.979368 -0.174552 0.10183
22.4289 10.7226 -2.70995 0.985073 -0.172071 -0.00485002
22.5367 11.3683 -3.18528 0.949174 -0.242028 -0.201224
22.4165 10.9824 -3.28616 0.940554 -0.232143 -0.247926
22.3878 10.396 -2.59255 0.996726 -0.0807333 0.00441339
22.3488 9.911 -2.56409 0.993064 -0.0983746 -0.0643924
22.3462 9.68911 -2.16797 0.997689 -0.059566 0.0326911
22.2754 9.66816 -2.94028 0.948414 -0.160882 -0.27318
22.3204 9.81645 -1.9263 0.986362 0.0231976 0.162948
22.3069 10.5134 -2.02289 0.97127 0.021836 0.236978
21.9375 9.96637 -1.03191 0.771585 0.17605 0.61128
22.0791 9.55187 -1.14134 0.878666 0.0684349 0.472507
22.1434 10.1425 -1.40636 0.884002 0.130128 0.449007
21.9316 9.37484 -0.886709 0.785284 0.112425 0.608843
21.8538 8.708 -0.684352 0.825949 0.0313325 0.562873
21.7481 8.06323 -0.514228 0.808475 0.0351779 0.587478
21.7687 7.65597 -0.504196 0.806667 0.0535421 0.588576
21.8846 7.73395 -0.706656 0.886042 0.015458 0.463347
20.8491 7.88103 0.156931 0.278006 0.241772 0.929655
21.1132 7.98101 0.0338954 0.433462 0.19986 0.87873
21.6488 8.86374 -0.493764 0.610721 0.148476 0.777801
21.5317 8.31136 -0.316227 0.628626 0.124854 0.76762
21.7571 8.8366 -0.583543 0.724523 0.105777 0.681086
21.4426 9.07336 -0.391271 0.447373 0.175591 0.876941
21.4298 8.66575 -0.309933 0.543561 0.162305 0.823528
14.1601 9.36027 -2.56941 -0.702134 0.277854 0.655595
21.1318 9.03695 -0.262383 0.270417 0.247649 0.930346
21.2344 8.53774 -0.168837 0.424716 0.221656 0.877773
21.4681 9.31775 -0.439727 0.492316 0.208851 0.844989
20.9392 9.02437 -0.221425 0.154339 0.311979 0.937469
20.6542 8.72294 -0.07813 0.0450799 0.350174 0.935599
15.1215 -0.436484 -2.06917 0.435548 -0.897687 -0.0667464
12.1836 1.72683 -2.34631 -0.959314 0.13851 -0.246033
21.852 7.10023 -0.622254 0.919025 0.058705 0.389803
15.1228 9.37445 -5.49624 -0.476027 -0.118751 -0.871376
15.2191 9.05809 -5.49009 -0.399837 -0.169346 -0.900807
15.2745 9.86787 -5.6192 -0.334528 -0.121283 -0.934549
15.1036 9.92415 -5.54774 -0.47689 -0.110936 -0.871934
14.9319 9.89324 -5.43504 -0.557794 -0.0965516 -0.824345
14.6959 10.5818 -5.33836 -0.635882 -0.0425613 -0.770611
14.758 9.93061 -5.31309 -0.605332 -0.0857489 -0.79134
15.1616 10.4462 -5.65381 -0.497507 -0.0770813 -0.864029
15.4427 10.6343 -5.77933 -0.304314 0.0470776 -0.951408
15.3783 11.1801 -5.68384 -0.425131 0.0812395 -0.901479
15.547 11.1109 -5.7546 -0.239665 0.0375287 -0.97013
15.3878 11.7493 -5.65636 -0.503881 0.0335447 -0.863122
15.1474 11.3052 -5.54497 -0.527048 0.113578 -0.842211
15.095 11.84 -5.44922 -0.640416 0.0703977 -0.764795
15.3993 12.3674 -5.65551 -0.485798 0.0340743 -0.873407
15.6878 12.0515 -5.804 -0.363153 0.0127881 -0.931642
15.7125 11.724 -5.81229 -0.255374 -0.0113992 -0.966775
16.0256 12.279 -5.88088 -0.112265 -0.0434863 -0.992726
16.2283 11.5194 -5.8316 0.0597346 -0.077723 -0.995184
16.5205 11.7885 -5.81563 0.185666 -0.117537 -0.975558
16.9854 12.2215 -5.76875 0.272917 -0.160918 -0.948484
17.3782 12.2322 -5.61732 0.435027 -0.207322 -0.876224
17.4255 12.7097 -5.69564 0.477934 -0.19099 -0.857381
17.5586 12.4495 -5.5608 0.572585 -0.17608 -0.800713
17.3182 12.5587 -5.71776 0.373131 -0.182281 -0.909696
17.6843 11.5908 -5.21968 0.68304 -0.247301 -0.68724
17.7262 12.1383 -5.34195 0.732705 -0.166303 -0.659914
17.696 11.1192 -5.01064 0.688126 -0.244345 -0.683212
17.6176 10.4693 -4.88415 0.667842 -0.178658 -0.722543
18.1582 11.5619 -4.68228 0.653751 -0.177786 -0.735529
17.8088 10.7386 -4.78003 0.648812 -0.198027 -0.73473
18.0354 10.9361 -4.64435 0.528748 -0.149626 -0.835486
17.7856 10.1175 -4.65034 0.613708 -0.170411 -0.770923
17.9253 10.2879 -4.58711 0.498454 -0.16357 -0.851345
17.7128 9.69412 -4.61972 0.638034 -0.144897 -0.756252
17.1265 9.85488 -5.20283 0.614583 -0.156379 -0.773197
17.2775 10.0215 -5.10614 0.665886 -0.155421 -0.729685
17.2835 9.29223 -4.95313 0.674744 -0.135771 -0.725456
17.5671 9.99364 -4.81355 0.682961 -0.14748 -0.715411
17.5699 9.18557 -4.66345 0.663949 -0.122374 -0.737697
17.2084 8.74767 -4.92789 0.655868 -0.12822 -0.743907
17.8654 8.92992 -4.45562 0.326543 -0.0512104 -0.943794
17.6017 8.92533 -4.59778 0.591116 -0.105411 -0.799669
17.8827 9.56172 -4.47329 0.47014 -0.111815 -0.87548
18.0317 9.408 -4.41677 0.150511 -0.0401649 -0.987792
18.1744 9.16379 -4.40108 0.0792361 -0.0315533 -0.996356
18.102 8.66539 -4.393 0.132184 -0.0575052 -0.989556
18.6311 8.95566 -4.3803 0.00445931 -0.0603199 -0.998169
18.4043 9.58283 -4.40869 -0.00376012 -0.0602955 -0.998173
18.3408 8.68424 -4.37414 0.0456397 -0.0503725 -0.997687
16.8322 -0.671798 -2.74543 -0.5663 -0.674956 -0.47301
16.6074 -0.29412 -2.9679 -0.648458 -0.669904 -0.361566
16.9033 -0.839829 -2.55458 -0.513952 -0.767158 -0.383825
20.5565 8.65085 -4.14152 0.223448 -0.0509385 -0.973384
20.1525 8.956 -4.24358 0.195908 -0.0758912 -0.977681
21.0505 8.52516 -3.99872 0.350672 -0.0726031 -0.93368
21.4612 9.18157 -3.8744 0.442652 -0.098177 -0.891303
21.4707 8.69593 -3.81158 0.523616 -0.117425 -0.843823
21.6878 9.37744 -3.76136 0.561669 -0.13255 -0.816675
21.8292 9.2878 -3.6277 0.681213 -0.150526 -0.716443
21.7861 8.65089 -3.52928 0.74102 -0.177977 -0.647467
22.0516 10.5074 -3.72942 0.729948 -0.256399 -0.63359
22.1885 11.4869 -4.02408 0.712849 -0.285678 -0.640496
22.2411 11.0221 -3.71438 0.80972 -0.273792 -0.519029
22.0642 10.8701 -3.88653 0.674615 -0.300569 -0.674205
22.384 11.6166 -3.80709 0.84317 -0.274894 -0.462059
22.5205 12.1081 -3.84572 0.862746 -0.253899 -0.437269
22.3755 11.892 -3.9788 0.780933 -0.258879 -0.568441
22.6151 12.2007 -3.6871 0.89675 -0.247504 -0.366853
22.6728 12.2044 -3.51477 0.935532 -0.225954 -0.271522
22.7698 12.872 -3.71998 0.926116 -0.240743 -0.290434
22.6507 12.5653 -3.82858 0.896506 -0.229216 -0.379126
22.867 13.2969 -3.79965 0.933459 -0.264221 -0.242574
22.8304 12.9625 -3.5191 0.972888 -0.203806 -0.109322
22.7451 12.3218 -3.1104 0.988553 -0.144848 0.0422139
22.6013 12.1961 -2.49814 0.931309 -0.0938978 0.35192
22.617 11.8399 -2.70183 0.963445 -0.137732 0.229789
22.717 12.5283 -2.75546 0.972053 -0.096937 0.213812
22.4825 11.2373 -2.52688 0.953628 -0.123621 0.27443
22.4063 10.9514 -2.36147 0.958726 -0.0608191 0.277751
22.4111 10.7469 -2.47307 0.982981 -0.100362 0.153867
22.3594 10.3991 -2.27807 0.991166 -0.00798762 0.132387
22.2463 10.8151 -1.86825 0.926001 0.056517 0.373266
22.2405 10.434 -1.74567 0.934974 0.107329 0.338089
22.1145 10.8327 -1.59378 0.855601 0.135615 0.499555
22.0117 10.4999 -1.32095 0.801584 0.198791 0.563867
21.8705 10.2695 -1.06088 0.682221 0.260178 0.683287
21.677 10.1069 -0.828971 0.599876 0.259289 0.756913
21.7684 9.61157 -0.765186 0.655762 0.187028 0.731435
21.5428 10.3716 -0.842905 0.481659 0.328708 0.812376
21.4553 9.73112 -0.563167 0.463662 0.279442 0.840791
21.2237 9.62088 -0.44113 0.235452 0.30987 0.921164
20.9905 9.59328 -0.397611 0.0590041 0.339503 0.938753
20.7804 9.1903 -0.261627 0.0108904 0.345493 0.938358
20.4388 8.74402 -0.0920012 -0.107584 0.380868 0.918349
20.6965 9.76693 -0.468361 -0.0718106 0.371665 0.925586
20.5705 9.30329 -0.313075 -0.106039 0.358904 0.927331
20.5227 9.84405 -0.534603 -0.272499 0.420546 0.865382
20.3874 9.46181 -0.419345 -0.265505 0.39346 0.880168
20.2697 7.97222 0.182138 -0.126468 0.324215 0.937492
20.2975 8.48931 -0.00771969 -0.15976 0.361395 0.918624
20.1585 8.16933 0.0853432 -0.208816 0.357973 0.910083
17.0103 9.42225 -2.21372 -0.14384 0.378072 0.914533
17.121 -0.855558 -2.79618 -0.653547 -0.701839 -0.283369
17.327 -1.13549 -2.62923 -0.701984 -0.626655 -0.338411
17.4978 -1.58706 -2.14281 -0.664281 -0.649631 -0.369742
16.7659 -0.391134 -3.11068 -0.557838 -0.824711 0.0931113
17.8264 -1.88192 -2.09129 -0.568097 -0.778354 -0.267267
18.5062 -2.11164 -2.75072 -0.48118 -0.746487 -0.45959
18.3807 -2.22114 -2.24647 -0.523745 -0.812417 -0.25626
15.3994 0.0426887 -0.871099 0.111866 -0.913093 0.392105
14.5775 9.56918 -5.1234 -0.64246 -0.0833735 -0.761771
14.3577 8.96825 -4.86845 -0.698998 -0.0573223 -0.712823
14.4446 10.0868 -5.04229 -0.727406 -0.0521175 -0.684225
14.1251 10.388 -4.66926 -0.851082 0.0838068 -0.518301
14.0477 9.9671 -4.55469 -0.947421 0.0840426 -0.308755
