17.1354 10.4477 -4.93667 0.20577 -0.163267 0.964885
16.502 10.4885 -4.84924 0.0398812 -0.14973 0.987922
15.7251 9.60083 -5.16128 -0.574596 -0.15583 0.803465
15.8356 9.23794 -5.18652 -0.349247 -0.235114 0.907054
18.3561 10.386 -5.40369 0.342068 -0.0620426 0.937625
16.4541 9.24939 -5.0241 -0.00275964 -0.169466 0.985532
17.4759 8.09411 -5.34848 0.163318 -0.167594 0.972234
17.3753 9.08863 -5.16814 0.254042 -0.119932 0.959728
17.5839 9.35896 -5.19107 0.307143 -0.113558 0.944864
16.6818 13.7527 -7.29609 -0.0492688 0.354354 -0.933813
16.0648 13.6576 -7.2145 -0.252793 0.353799 -0.900512
16.4821 13.7099 -7.29575 -0.125547 0.357981 -0.92525
16.048 13.0068 -7.46187 -0.380749 0.331567 -0.863188
20.0231 9.38674 -5.16901 -0.332007 -0.146882 0.931771
19.0406 9.74688 -5.52186 -0.203666 -0.190415 0.960345
17.0867 11.883 -7.94567 0.0490422 0.270961 -0.96134
21.0094 9.71681 -4.81786 -0.319949 -0.112298 0.940756
18.4271 9.54223 -5.50796 0.329215 -0.0865612 0.940279
20.4832 9.33378 -5.02277 -0.298712 -0.130477 0.945382
19.6389 9.17005 -5.36666 -0.42117 -0.157464 0.893208
19.1824 8.83607 -5.64835 -0.398325 -0.160765 0.903046
19.2407 7.32009 -5.84671 -0.120793 -0.101124 0.987514
19.5257 7.37116 -5.74563 -0.443435 -0.166052 0.880791
20.063 7.41581 -5.46278 -0.430917 -0.167576 0.886696
20.9586 6.68813 -5.19286 -0.373217 -0.191855 0.90769
21.839 6.28905 -5.01987 -0.246119 -0.209706 0.946282
22.0333 5.7393 -5.04193 -0.199293 -0.160341 0.966733
22.2416 5.16771 -5.13285 -0.127977 -0.128582 0.983407
23.0475 4.65935 -5.09138 0.000740173 0.0175719 0.999845
22.6072 4.72703 -5.08989 -0.0643328 -0.0252525 0.997609
23.5241 3.80395 -5.06633 0.162091 0.0904812 0.982619
23.2983 4.40256 -5.09401 0.0738451 0.0686411 0.994905
23.6259 2.80832 -4.99027 0.184471 0.0784654 0.979701
24.4202 4.00268 -5.45242 0.577378 0.11123 0.808865
25.0477 3.14008 -6.22615 0.892697 -0.0358219 0.449232
24.864 2.92336 -5.89954 0.78572 -0.0293387 0.617886
25.0117 2.28436 -6.24365 0.916576 -0.0827221 0.391209
25.0421 2.01845 -6.49576 0.958733 -0.183831 0.216881
24.8915 1.82098 -6.12165 0.911905 -0.144357 0.384175
24.6848 1.67505 -5.78634 0.824805 -0.0806489 0.559637
24.7409 1.23719 -5.98759 0.891075 -0.1723 0.419879
25.1544 2.2285 -6.8905 0.968695 -0.210132 0.132195
25.235 2.41369 -7.35602 0.970033 -0.239367 0.0416985
25.3067 2.70886 -7.71392 0.978601 -0.177847 -0.103493
25.3702 3.25375 -7.44783 0.990599 0.0622369 -0.121819
25.2652 3.89059 -7.51018 0.972955 0.139159 -0.184375
25.0237 4.1906 -8.60951 0.965901 0.177759 -0.188249
24.8818 4.49059 -8.71585 0.811768 0.423626 -0.401963
24.8995 4.83747 -8.20539 0.831344 0.472634 -0.292378
24.8824 5.22339 -7.5241 0.867681 0.454681 -0.200985
24.7295 5.4242 -7.65636 0.814251 0.498291 -0.297828
24.5118 5.60941 -7.92821 0.788494 0.510438 -0.343119
24.6937 4.96052 -8.5019 0.746156 0.52738 -0.406352
24.2782 5.83603 -8.08081 0.737031 0.528924 -0.420742
24.093 6.15889 -8.02871 0.762115 0.434555 -0.47994
24.2254 5.50485 -8.55092 0.686988 0.5274 -0.499897
23.7677 6.63302 -8.16645 0.731835 0.312871 -0.605417
23.2955 6.93534 -8.56093 0.700257 0.179061 -0.691069
23.4263 6.5216 -8.59418 0.643391 0.40125 -0.651956
23.1269 6.63838 -8.79212 0.516867 0.367199 -0.773313
23.3961 6.06524 -8.95034 0.533309 0.462854 -0.708059
23.7444 5.86352 -8.806 0.627396 0.501794 -0.595464
23.5435 5.57899 -9.13944 0.440324 0.467905 -0.766277
23.6862 4.85604 -9.53831 0.356299 0.51634 -0.778745
23.2852 5.13845 -9.50835 0.219761 0.488173 -0.844625
23.694 4.31789 -9.91011 0.323895 0.53003 -0.783684
23.3822 4.16314 -10.1168 0.24162 0.560161 -0.792364
23.2594 4.60021 -9.84873 0.175466 0.537238 -0.824977
22.1967 5.40682 -9.55129 0.152905 0.358683 -0.920851
22.7525 5.23447 -9.55084 0.135675 0.456841 -0.879141
21.7019 5.44561 -9.62355 0.195887 0.248752 -0.948552
21.534 5.90094 -9.59806 0.214526 0.149381 -0.965227
21.3534 5.51649 -9.69034 0.264644 0.205976 -0.942092
20.8234 5.90806 -9.77391 0.233488 0.239135 -0.942495
20.1501 5.60548 -10.0726 0.300534 0.393812 -0.868672
20.0157 5.90047 -9.97831 0.188052 0.38481 -0.903636
20.3499 6.41419 -9.70442 0.0510037 0.375454 -0.925436
19.7264 5.96646 -10.0113 0.15229 0.508559 -0.847452
19.4086 6.45039 -9.76337 0.185102 0.536524 -0.823334
19.2271 5.79983 -10.2739 0.236574 0.594654 -0.768388
18.2514 6.78506 -9.83567 0.158878 0.508893 -0.846041
16.9459 7.71834 -9.17985 -0.385922 0.423867 -0.819391
16.5263 9.57322 -8.57288 -0.358354 0.165575 -0.918786
16.4074 7.86358 -8.81718 -0.481315 0.17279 -0.859348
15.6152 9.57997 -7.8242 -0.760317 0.0926111 -0.642916
15.7821 12.8993 -7.34248 -0.603503 0.277099 -0.747664
15.1414 10.8473 -6.97903 -0.88969 0.0407589 -0.454742
15.1707 8.79055 -7.16446 -0.927833 0.0179334 -0.372564
15.2687 9.16121 -7.34858 -0.885152 0.028821 -0.464409
15.0987 9.46144 -6.94176 -0.988503 -0.0471643 -0.143658
15.2247 10.2181 -5.5882 -0.928663 -0.125359 0.349099
15.3177 9.65065 -5.54471 -0.884359 -0.107371 0.454292
15.4818 9.62031 -5.34555 -0.66186 -0.17913 0.72791
15.2516 8.73999 -5.92556 -0.908882 -0.116359 0.400492
15.5264 8.68161 -5.54863 -0.66129 -0.204684 0.721664
16.3223 8.43656 -5.23112 -0.159992 -0.23331 0.95915
17.2064 7.83535 -5.36109 0.092993 -0.187306 0.97789
16.8269 7.2402 -5.46322 0.0320603 -0.192617 0.98075
18.0138 9.0524 -5.38422 0.367311 -0.0894954 0.925783
18.7787 9.28499 -5.63632 0.137244 -0.162122 0.97718
18.7418 8.47243 -5.71193 0.330513 -0.0584428 0.94199
18.8383 7.41628 -5.80704 0.16175 -0.0740427 0.98405
18.9289 8.28627 -5.76578 0.0618472 -0.099392 0.993124
19.064 8.60079 -5.72132 -0.162145 -0.142171 0.976471
18.7641 5.98312 -5.87604 0.186253 -0.0552753 0.980946
18.4539 5.21763 -5.8699 0.155517 -0.00498664 0.987821
19.1934 5.10327 -5.95271 0.0304962 -0.0327326 0.998999
19.2791 5.99538 -5.89944 -0.100727 -0.0531729 0.993492
19.3131 6.53554 -5.88297 -0.01185 -0.0454406 0.998897
19.8508 6.91462 -5.66537 -0.425945 -0.154329 0.891489
19.6543 6.56647 -5.80855 -0.354036 -0.0873976 0.931139
21.0217 6.21763 -5.28015 -0.314359 -0.191279 0.929834
21.4592 6.14176 -5.1504 -0.281368 -0.101092 0.95426
20.8125 5.18591 -5.53712 -0.315598 -0.207345 0.925962
21.0373 5.67095 -5.33315 -0.340062 -0.144209 0.92928
20.3802 5.58561 -5.61109 -0.347827 -0.169545 0.922101
21.8519 5.08122 -5.22738 -0.277278 -0.164059 0.946679
21.9911 4.58819 -5.21309 -0.326342 -0.0925721 0.940708
22.2337 4.74041 -5.13925 -0.18913 -0.0780986 0.978841
22.6805 4.21799 -5.12626 -0.129886 -0.0175629 0.991373
23.1702 4.059 -5.06801 -0.0526579 0.062638 0.996646
22.5248 3.99437 -5.14913 -0.202558 0.0601069 0.977424
22.2478 3.14544 -5.1554 -0.241408 0.0681346 0.968029
22.7335 2.45582 -4.99338 -0.191089 0.077078 0.978542
23.0844 3.30711 -5.01203 -0.107258 0.0735055 0.99151
23.2219 2.72212 -4.96039 -0.0229412 0.080595 0.996483
23.3953 3.26593 -5.00466 0.0408642 0.0788507 0.996049
23.8562 2.12087 -5.00717 0.325682 0.044382 0.944437
24.048 2.3136 -5.1007 0.528553 0.0389065 0.848008
23.4817 1.75949 -4.89338 0.15215 0.0735124 0.98562
24.0655 1.64727 -5.10717 0.55927 -0.0192158 0.828763
24.2222 2.13756 -5.24045 0.697901 0.00249185 0.71619
24.256 1.3194 -5.28682 0.673048 -0.049686 0.737928
24.5422 1.22429 -5.62225 0.815009 -0.103132 0.570196
24.4645 1.85217 -5.50499 0.751543 -0.025813 0.659179
24.5953 2.23027 -5.6281 0.736634 -0.0184298 0.676041
24.2019 2.68271 -5.24198 0.662743 0.000920904 0.748846
24.308 3.53062 -5.33605 0.542716 0.0497879 0.838439
24.519 3.42198 -5.4977 0.692626 -0.0343979 0.720476
24.661 0.800767 -6.19131 0.90225 -0.378894 0.205874
24.8374 1.23914 -6.26714 0.940751 -0.255626 0.222808
24.4875 0.761048 -5.71928 0.880103 -0.282563 0.381546
24.4882 0.430635 -6.28668 0.885205 -0.452675 0.107226
24.7431 0.895682 -6.54726 0.913442 -0.403623 0.0520819
24.4206 0.261885 -6.50164 0.886393 -0.459702 0.0545974
24.3243 0.0569555 -6.67478 0.880787 -0.471766 0.0406388
24.4541 0.301886 -7.05544 0.894668 -0.446695 -0.00575091
24.1922 -0.192266 -6.86388 0.860722 -0.508696 0.0196543
24.1403 -0.236326 -6.4094 0.863143 -0.499758 0.0722933
23.9066 -0.613846 -6.32463 0.837196 -0.539596 0.0890955
24.1373 -0.154356 -5.94601 0.86116 -0.490525 0.133377
23.7744 -0.70099 -5.81714 0.806544 -0.550598 0.215241
23.5047 -1.10393 -5.88199 0.756628 -0.62355 0.196722
23.8233 -0.803033 -6.80413 0.833529 -0.551391 0.0346074
23.6123 -1.09986 -6.79275 0.788336 -0.612454 0.0585356
23.3208 -1.37744 -6.13709 0.738659 -0.662957 0.121949
23.6112 -1.10336 -7.49428 0.804456 -0.593962 -0.00771645
23.4861 -1.26084 -6.94745 0.753846 -0.65686 0.0158535
23.7408 -0.911451 -7.67435 0.830469 -0.556164 -0.0316477
23.9336 -0.618625 -7.48385 0.854898 -0.518296 -0.0227788
24.2406 -0.10285 -7.38285 0.876075 -0.481616 -0.0232089
24.3544 0.140572 -7.54586 0.900243 -0.430046 -0.0679942
24.5847 0.599421 -7.26666 0.909059 -0.409878 -0.0749151
24.6975 0.792746 -6.87653 0.90729 -0.41964 -0.02695
25.0372 1.66986 -7.07748 0.962255 -0.271008 0.0249097
24.9458 1.44378 -6.6915 0.959078 -0.262856 0.105247
24.9027 1.2683 -7.00128 0.927517 -0.373188 -0.021046
25.0957 1.90949 -7.51038 0.957537 -0.285798 -0.037978
25.1717 2.1962 -7.59723 0.963818 -0.263931 -0.0373627
25.1332 2.13664 -8.02556 0.9563 -0.275079 -0.0991071
25.1128 2.25001 -8.33637 0.963562 -0.194041 -0.184108
25.0517 3.67498 -8.75941 0.983135 0.0487555 -0.176262
25.022 3.91127 -8.85883 0.952337 0.110435 -0.284356
24.7527 4.27946 -9.07492 0.708614 0.40838 -0.575406
24.9112 4.13809 -8.94606 0.825628 0.312057 -0.470063
24.5001 4.77291 -8.97785 0.645522 0.5152 -0.5638
24.2552 5.04762 -8.97058 0.600465 0.518362 -0.608886
23.759 6.34443 -8.35121 0.6961 0.475928 -0.537528
23.859 5.35109 -9.07942 0.538897 0.493723 -0.682516
23.995 4.48698 -9.62816 0.488078 0.506236 -0.710988
23.9721 4.72036 -9.4754 0.500972 0.51377 -0.696468
22.7311 4.8559 -9.76488 0.143846 0.538687 -0.830135
22.9639 4.16637 -10.2174 0.170657 0.579111 -0.797187
21.6857 5.14235 -9.76789 0.179666 0.497574 -0.848611
21.3097 5.29087 -9.79652 0.288077 0.439276 -0.85091
19.3847 5.57075 -10.4627 0.270095 0.74829 -0.605896
20.0764 5.4048 -10.2506 0.384599 0.671619 -0.633254
19.7533 5.33378 -10.5788 0.396116 0.784967 -0.47636
19.7359 5.63506 -10.2229 0.277836 0.565388 -0.776623
20.9275 5.52986 -9.82943 0.308695 0.328908 -0.892484
20.4871 5.3805 -10.0731 0.333716 0.53 -0.779573
18.3168 5.96005 -10.4583 0.163017 0.661627 -0.731898
17.7763 6.73504 -9.90195 -0.0119935 0.542588 -0.839913
17.4756 6.50195 -10.0219 -0.196999 0.506561 -0.839397
17.0835 6.02867 -10.2675 -0.300882 0.587629 -0.751107
17.1626 6.9339 -9.67389 -0.219391 0.446481 -0.867481
16.878 6.38861 -9.85029 -0.465765 0.447144 -0.763626
16.583 6.40106 -9.63327 -0.554919 0.369623 -0.745281
16.6299 7.56599 -9.09049 -0.445764 0.395417 -0.803082
15.7913 7.88865 -8.34054 -0.696517 0.159967 -0.699482
16.1769 7.58809 -8.77251 -0.614848 0.207226 -0.760933
15.905 8.88769 -8.24065 -0.677962 0.134142 -0.722755
15.4203 8.92294 -7.65017 -0.826788 0.064408 -0.558815
15.2215 8.06434 -7.54186 -0.900167 0.0974253 -0.424509
15.162 8.12602 -6.71898 -0.998626 -0.0326802 0.0409723
15.1662 7.60302 -6.87642 -0.997106 -0.0359022 0.0670098
15.1538 8.69608 -6.47944 -0.992141 -0.0535627 0.11308
15.0596 9.36528 -6.55068 -0.981482 -0.0845088 0.171904
15.1651 9.25452 -6.06325 -0.972568 -0.0853254 0.216405
21.9949 -0.0434459 -11.3319 -0.641368 -0.649687 -0.408111
21.9972 0.453788 -11.8855 -0.583185 -0.566856 -0.581867
22.2238 -0.158769 -11.4984 -0.55446 -0.704871 -0.442416
15.3259 7.38264 -6.19645 -0.849196 -0.159303 0.503476
15.2918 8.1059 -6.0564 -0.940253 -0.102799 0.324586
15.2592 6.94773 -6.48888 -0.974018 -0.0794019 0.212095
15.414 8.17007 -5.82179 -0.744769 -0.186975 0.640593
16.7372 8.34844 -5.22163 -0.0261975 -0.215167 0.976226
17.4853 6.56215 -5.59663 0.0797267 -0.0953433 0.992247
17.8308 6.38085 -5.66387 0.177237 -0.135179 0.97484
18.16 7.11421 -5.63954 0.228864 -0.104619 0.96782
18.4702 7.35877 -5.69031 0.27728 -0.117181 0.953616
18.8117 4.70255 -5.91299 0.13675 0.133906 0.981513
19.5864 3.49759 -5.65142 -0.00359846 0.2271 0.973865
19.5464 5.49444 -5.88562 -0.261251 -0.055646 0.963666
20.4984 6.1702 -5.4888 -0.383396 -0.128637 0.914582
20.3963 6.53569 -5.47381 -0.414575 -0.167139 0.894534
20.0568 5.93918 -5.69062 -0.355391 -0.0888875 0.930482
19.8917 5.22698 -5.83742 -0.281438 -0.128611 0.950922
21.6063 5.61 -5.15822 -0.277509 -0.194726 0.940782
20.4433 5.13004 -5.68199 -0.308233 -0.145128 0.940176
21.3425 4.59831 -5.46241 -0.312015 -0.0862792 0.946151
20.4378 4.69568 -5.73349 -0.281958 -0.0476477 0.958243
22.0353 4.14876 -5.25554 -0.254616 -0.0824704 0.963519
21.7771 3.9819 -5.33336 -0.261131 0.0477252 0.964123
22.5716 1.92143 -4.97533 -0.184554 0.160829 0.969574
22.9401 2.02594 -4.93012 -0.130398 0.0874733 0.987595
23.1427 1.66302 -4.86914 -0.0117305 0.146404 0.989155
23.7753 1.20422 -4.94784 0.488242 -0.0166601 0.872549
24.3474 1.09114 -5.40379 0.737509 -0.125085 0.663652
24.0749 0.640586 -5.21299 0.641212 -0.114418 0.758785
24.3163 0.632059 -5.48345 0.77917 -0.217874 0.587729
24.1908 0.240594 -5.50798 0.802235 -0.307989 0.511432
24.3185 0.300941 -5.72042 0.875894 -0.37002 0.309669
24.0339 -0.0942338 -5.4939 0.825811 -0.433109 0.361184
24.2766 0.148116 -5.84497 0.869066 -0.451589 0.201969
23.5655 -0.495391 -5.23572 0.487653 -0.425845 0.762136
23.8859 -0.151422 -5.30567 0.713244 -0.407585 0.570226
23.7761 -0.165065 -5.21626 0.503155 -0.321467 0.802181
23.5554 -0.709666 -5.39965 0.635338 -0.531909 0.559838
23.3852 -1.0467 -5.56848 0.692651 -0.601024 0.398754
23.861 -0.451752 -5.56847 0.786541 -0.516672 0.338237
23.1571 -1.59559 -6.44961 0.703826 -0.70684 0.0707539
23.0178 -1.62279 -6.03501 0.531511 -0.798917 0.281475
23.1662 -1.60051 -6.97079 0.658997 -0.75214 -0.00280905
23.2089 -1.54191 -7.58794 0.522945 -0.846034 -0.103709
23.352 -1.41602 -7.29542 0.723692 -0.690044 -0.0104868
23.3273 -1.41482 -7.92342 0.62697 -0.769904 -0.118983
23.4878 -1.24892 -7.85881 0.784128 -0.617779 -0.0590949
23.418 -1.25861 -8.24819 0.702322 -0.697808 -0.140738
23.5644 -1.06383 -8.28361 0.815129 -0.571174 -0.0965598
23.8294 -0.747578 -7.88371 0.840684 -0.534121 -0.0892447
24.1314 -0.244416 -7.86393 0.870329 -0.487263 -0.0714291
24.2522 0.055616 -8.23785 0.904315 -0.413426 -0.10627
24.9365 1.41848 -7.46563 0.920318 -0.378835 -0.0974658
25.0585 1.8467 -7.78374 0.936235 -0.334341 -0.108074
24.9935 2.20309 -8.83801 0.952844 -0.135652 -0.271454
24.6575 0.846324 -7.55454 0.910626 -0.395479 -0.119821
25.0205 3.02673 -8.94922 0.969583 0.0203009 -0.243921
24.984 2.83565 -9.06114 0.942829 -0.0389776 -0.33099
24.7889 2.9338 -9.58729 0.92562 -0.0191036 -0.377972
24.8478 3.41326 -9.40544 0.898642 0.0845932 -0.43045
24.5116 3.66045 -9.76163 0.684814 0.380165 -0.621695
24.5695 3.22542 -9.90491 0.782486 0.229283 -0.578917
24.2698 3.09485 -10.3312 0.683671 0.319068 -0.656346
24.4177 2.80565 -10.2331 0.806754 0.0271821 -0.590262
24.6476 2.94457 -9.87885 0.865413 0.0361545 -0.499753
24.948 3.67374 -9.13719 0.914832 0.105157 -0.389903
24.7558 3.62877 -9.46832 0.778439 0.294135 -0.554542
24.4412 4.40772 -9.32371 0.603587 0.470656 -0.643557
24.0044 4.03639 -9.93482 0.457831 0.502005 -0.733745
23.9392 3.75903 -10.161 0.435575 0.500902 -0.747912
23.8465 3.27364 -10.5427 0.434124 0.526235 -0.731173
23.607 3.56073 -10.4549 0.322948 0.547782 -0.771777
23.4838 3.15841 -10.8235 0.342043 0.609226 -0.715437
23.5681 2.92265 -10.9867 0.474451 0.569437 -0.671296
23.1538 2.70651 -11.5052 0.455399 0.608677 -0.64971
23.2615 3.05043 -11.0494 0.36188 0.695337 -0.620926
22.8453 3.15585 -11.1612 0.323909 0.770945 -0.548386
22.9501 3.18963 -11.0365 0.2758 0.731865 -0.623144
23.2074 3.37707 -10.7411 0.241122 0.615794 -0.750106
22.1512 3.92827 -10.5704 0.222786 0.619069 -0.753073
22.8955 3.62706 -10.6201 0.190518 0.604572 -0.773431
22.5004 4.32902 -10.1876 0.16065 0.587993 -0.792752
21.7503 4.8579 -9.95042 0.207741 0.591245 -0.779277
22.1304 3.56177 -10.9365 0.290574 0.774266 -0.562209
21.6585 3.83873 -10.8353 0.377644 0.678341 -0.630269
21.3634 4.51629 -10.3692 0.33293 0.624467 -0.70654
20.9805 4.2544 -10.8559 0.471423 0.66759 -0.576267
20.536 5.10684 -10.2816 0.397742 0.638345 -0.659028
21.1736 5.06464 -9.99345 0.319634 0.565637 -0.76019
20.432 4.83592 -10.6719 0.480758 0.693963 -0.535992
19.2242 5.47987 -10.6686 0.172964 0.88531 -0.431636
17.3458 5.33765 -11.1749 -0.296707 0.832369 -0.468109
17.8678 5.25809 -11.537 0.0350529 0.914549 -0.402954
18.3865 5.57669 -10.7924 0.172341 0.763825 -0.621989
17.6686 5.65028 -10.8219 0.0132274 0.725476 -0.688121
17.5392 5.86992 -10.5799 -0.263758 0.707153 -0.656023
16.1722 6.36084 -9.2825 -0.676683 0.308625 -0.668468
16.02 6.99465 -8.85258 -0.710715 0.213776 -0.670212
15.348 6.622 -8.01477 -0.856445 0.127028 -0.500366
15.307 6.1233 -8.0448 -0.95994 0.110507 -0.257493
15.1964 6.49715 -7.56408 -0.998415 0.0165658 -0.0537937
15.3009 7.35938 -7.78577 -0.930923 0.0451916 -0.362408
15.504 7.91067 -8.00929 -0.761248 0.14398 -0.632275
15.174 7.40961 -7.4348 -0.996454 -0.022805 -0.0809865
15.1467 7.69586 -7.19265 -0.998236 -0.050032 0.0319668
15.6015 7.10877 -5.95271 -0.547628 -0.215791 0.808417
16.2136 7.09508 -5.60226 -0.362207 -0.158117 0.918589
16.4549 6.67108 -5.58602 -0.139101 -0.107749 0.984399
15.9917 6.66142 -5.72774 -0.334915 -0.106483 0.936212
16.9427 6.38015 -5.58946 0.0106253 -0.143311 0.989621
16.8559 5.05891 -5.61911 0.0310935 0.0139946 0.999419
17.4064 4.94909 -5.66646 0.153661 0.0420764 0.987227
17.7412 5.34111 -5.73664 0.112557 -0.0678152 0.991328
18.3676 4.33565 -5.73428 0.180658 0.185752 0.965846
17.3121 4.25515 -5.56713 0.0888226 0.139123 0.986284
16.7408 3.86303 -5.53827 -0.233665 0.0450747 0.971272
16.192 3.30169 -5.69413 -0.445407 -0.0653938 0.892937
17.0155 2.05923 -5.4274 -0.16102 0.0051813 0.986938
17.4406 2.93961 -5.41687 -0.0477243 0.07752 0.995848
16.7333 3.03319 -5.48875 -0.255511 -0.00741773 0.966778
17.5766 3.49366 -5.4834 0.0654695 0.132207 0.989058
19.1115 3.92678 -5.72346 0.0837419 0.203351 0.975518
19.8811 4.23721 -5.82077 -0.107155 0.219307 0.969754
20.1454 4.37099 -5.80331 -0.189376 0.0683811 0.979521
20.3641 3.72261 -5.6516 -0.132266 0.188457 0.973134
21.0252 3.69909 -5.51775 -0.219407 0.107495 0.969694
20.8409 4.31352 -5.61767 -0.271202 0.0356398 0.961862
21.3207 3.26843 -5.40508 -0.224438 0.0845665 0.970812
21.5889 2.26746 -5.25767 -0.223185 0.0967398 0.969964
20.9051 2.3259 -5.3876 -0.128547 0.159272 0.97883
21.3998 2.02431 -5.24826 -0.164985 0.259262 0.951611
20.3812 1.8565 -5.29516 -0.0800137 0.292724 0.952843
21.1776 1.75888 -5.19061 -0.0928737 0.379186 0.920648
22.3193 1.60201 -4.95431 -0.156253 0.260534 0.952737
21.9998 1.39255 -4.93358 -0.119741 0.348088 0.929783
23.5571 1.36189 -4.86298 0.247076 0.119976 0.96154
23.1377 0.856422 -4.7015 0.10158 0.185854 0.977313
23.3387 0.731817 -4.73672 0.351225 -0.00547019 0.936275
23.6388 0.782545 -4.87454 0.496392 -0.104203 0.861822
23.8318 0.476814 -5.04923 0.581348 -0.189093 0.791378
23.9976 0.256294 -5.26386 0.684492 -0.250544 0.684616
23.7031 0.117702 -5.06479 0.502597 -0.277276 0.81885
22.7567 -0.478212 -4.76931 0.451426 -0.374787 0.809784
22.9865 -1.15423 -5.27125 0.486078 -0.514196 0.706634
23.1516 -1.17854 -5.43566 0.582562 -0.576789 0.572657
22.9328 -1.7768 -6.5305 0.495446 -0.868086 0.0309785
23.0295 -1.67649 -7.19999 0.363337 -0.924001 -0.119197
22.9915 -1.62207 -7.60706 0.114893 -0.962294 -0.246556
23.1783 -1.42749 -8.18892 0.270369 -0.931029 -0.245124
22.7536 -1.72269 -7.22222 -0.128337 -0.94424 -0.303217
22.7911 -1.62571 -7.54657 -0.300657 -0.891876 -0.337879
23.2807 -1.29783 -8.48717 0.451259 -0.864115 -0.222868
23.423 -1.11561 -8.91089 0.616717 -0.767506 -0.174913
23.5697 -0.980903 -8.81265 0.803457 -0.587489 -0.0965127
24.0707 -0.282029 -8.20391 0.859672 -0.502008 -0.094616
23.8029 -0.700459 -8.3305 0.839411 -0.535817 -0.0910459
24.0574 -0.192165 -8.79164 0.879593 -0.464579 -0.10239
23.8179 -0.583761 -8.91048 0.84887 -0.521724 -0.084991
24.6338 0.887421 -7.84379 0.909721 -0.393755 -0.131777
24.4521 0.42911 -7.88128 0.918746 -0.379672 -0.108416
24.5732 0.830754 -8.12622 0.915598 -0.38254 -0.123872
24.4471 0.594541 -8.37006 0.919803 -0.371005 -0.127738
24.7571 1.2955 -8.24269 0.910705 -0.389705 -0.136916
24.9818 1.78304 -8.16902 0.91483 -0.374744 -0.150511
24.8749 1.43661 -7.88846 0.904993 -0.401553 -0.140508
25.03 2.03454 -8.43976 0.931562 -0.32078 -0.171149
24.8552 2.47665 -9.32156 0.93328 -0.0975153 -0.345658
24.7768 2.70454 -9.56477 0.908067 -0.0607077 -0.414401
24.6283 2.58574 -9.84139 0.866383 -0.0438383 -0.497452
24.3906 2.5857 -10.2156 0.830182 -0.040148 -0.556045
24.1703 2.39345 -10.5114 0.80188 -0.00205824 -0.597482
24.2631 3.86003 -9.86825 0.56753 0.458066 -0.684167
24.1099 3.26853 -10.3677 0.535024 0.456765 -0.710714
23.9216 2.92191 -10.731 0.58636 0.406217 -0.700834
22.8498 2.73076 -11.6821 0.391235 0.671746 -0.629041
23.0885 2.38875 -11.787 0.515116 0.426265 -0.743608
22.6887 2.61548 -11.8797 0.429981 0.570227 -0.69997
21.8108 3.16501 -11.7646 0.351892 0.786401 -0.507687
22.0721 2.74561 -12.1549 0.463281 0.643527 -0.609297
21.3637 3.14149 -12.2956 0.526266 0.728618 -0.43836
21.3137 3.01233 -12.5456 0.562674 0.590319 -0.578724
21.5064 3.23688 -11.9118 0.535721 0.763687 -0.360258
21.5152 3.3649 -11.6475 0.474703 0.76328 -0.438248
21.5596 3.6246 -11.179 0.422605 0.760341 -0.493241
22.6104 3.45971 -10.8568 0.246734 0.701075 -0.669041
20.8565 3.99425 -11.3384 0.552998 0.712789 -0.431423
20.9586 3.68203 -11.7872 0.538559 0.748076 -0.387732
20.6392 3.71341 -12.2666 0.568895 0.741433 -0.355858
20.1911 4.66568 -11.1726 0.528415 0.722156 -0.446394
20.0833 4.21716 -12.1384 0.530525 0.744387 -0.405501
19.3631 5.00004 -11.5233 0.432956 0.789567 -0.434894
19.2752 4.73296 -12.1012 0.397941 0.799866 -0.449284
19.6651 4.21083 -12.6125 0.411674 0.748095 -0.52046
18.8533 4.77161 -12.3192 0.21364 0.824798 -0.523513
18.7334 5.02275 -11.8933 0.171206 0.887377 -0.428077
17.6118 4.62699 -12.3916 -0.279111 0.677595 -0.680413
17.2256 4.81182 -11.9645 -0.412786 0.755061 -0.509402
17.9454 4.90529 -12.2221 -0.0404899 0.824055 -0.565061
16.6482 4.96736 -11.0684 -0.549619 0.678435 -0.487489
16.7403 4.69405 -11.5201 -0.64782 0.550439 -0.526637
16.869 5.39029 -10.7608 -0.430075 0.736093 -0.522688
16.4583 5.50646 -10.2649 -0.542633 0.553904 -0.631458
16.2104 5.43558 -10.0439 -0.640702 0.475285 -0.602997
15.959 5.82457 -9.44844 -0.748865 0.42378 -0.509521
15.6087 7.05774 -8.34355 -0.782014 0.182325 -0.595996
15.2077 5.87975 -7.8719 -0.919027 0.267857 -0.289208
15.2041 6.03645 -7.13761 -0.997598 0.00855668 0.0687456
15.228 6.4727 -6.96272 -0.988846 -0.0258832 0.146675
15.456 6.51201 -6.2152 -0.780267 -0.117553 0.6143
15.8546 6.40249 -5.82003 -0.57423 -0.111986 0.810999
15.6451 6.32821 -6.02422 -0.666723 -0.10386 0.738033
16.0262 4.60987 -5.7416 -0.392171 0.00706836 0.919865
16.3027 2.75955 -5.69621 -0.527355 -0.117306 0.841508
16.7637 1.89642 -5.52422 -0.466638 -0.101371 0.87862
16.4265 1.50265 -5.81177 -0.583041 -0.14899 0.798664
16.1747 1.21622 -6.15589 -0.694882 -0.252927 0.673177
16.7842 0.833238 -5.69088 -0.511854 -0.277875 0.812891
17.9073 2.37705 -5.38547 -0.00576381 0.0432956 0.999046
17.4951 1.49424 -5.35218 -0.0822118 0.0779691 0.99356
18.4935 1.82116 -5.37254 0.0175953 0.0635681 0.997822
18.5557 2.80389 -5.46951 0.074618 0.112439 0.990853
18.3307 3.52426 -5.55529 0.0931639 0.157777 0.98307
20.2534 3.05582 -5.55954 -0.0675712 0.164444 0.984069
20.6865 3.02636 -5.50213 -0.154814 0.116346 0.981069
20.8249 1.11736 -4.94279 -0.0890275 0.374648 0.922883
20.6418 0.559937 -4.76311 -0.0924655 0.139446 0.985903
22.0915 0.446062 -4.60094 -0.0678505 0.271099 0.960157
22.3723 1.19437 -4.82243 -0.09048 0.314785 0.94484
21.6565 0.804526 -4.74652 -0.0840088 0.31893 0.944048
22.8572 1.34051 -4.81924 -0.0679983 0.255281 0.964473
22.452 0.242502 -4.53411 0.043905 0.109596 0.993006
22.9117 0.379024 -4.60184 0.229065 0.00405827 0.973403
22.8011 0.666972 -4.63431 0.0100675 0.238852 0.971004
23.0818 0.10583 -4.69849 0.452074 -0.226464 0.862753
22.7087 -0.291047 -4.63865 0.409745 -0.381657 0.828521
22.1517 -1.21114 -4.92923 0.0784551 -0.441801 0.893676
22.6163 -1.0032 -4.95975 0.389695 -0.456427 0.799883
22.3951 -0.658724 -4.71106 0.22413 -0.399735 0.888807
22.5382 -0.242096 -4.55252 0.210516 -0.192508 0.958449
22.077 -0.571084 -4.66551 -0.127918 -0.281694 0.950939
21.664 -0.745454 -4.78585 -0.216742 -0.341217 0.914655
20.7602 -0.297574 -4.83595 -0.160173 -0.295566 0.941799
22.9809 -1.39798 -5.50851 0.541708 -0.710754 0.448755
22.6283 -1.34807 -5.20731 0.366334 -0.616839 0.696641
22.4653 -1.48852 -5.29584 0.218973 -0.830961 0.511424
22.7873 -1.56229 -5.61537 0.335506 -0.856107 0.393086
22.6087 -1.79238 -6.0782 0.0987596 -0.950024 0.296142
22.7032 -1.86354 -6.42405 0.251443 -0.95241 0.172311
22.6821 -1.86435 -6.69255 0.101832 -0.984568 -0.142322
22.7169 -1.36651 -8.091 -0.476624 -0.799731 -0.365048
22.5449 -1.48655 -7.59169 -0.547132 -0.75991 -0.350976
22.4308 -1.07061 -8.24868 -0.606242 -0.718409 -0.341114
22.6639 -1.16504 -8.41637 -0.570409 -0.766153 -0.296045
22.8733 -1.31696 -8.39185 -0.412426 -0.852872 -0.320177
22.8944 -1.47509 -7.99403 -0.245535 -0.907968 -0.33957
23.031 -1.38547 -8.34284 -0.114618 -0.945121 -0.305956
23.1569 -1.25822 -8.76627 0.117386 -0.953372 -0.278033
23.1276 -1.15326 -9.14551 -0.0601823 -0.971054 -0.231156
23.2738 -1.16066 -9.01821 0.288848 -0.92953 -0.229217
23.6444 -0.792261 -9.33987 0.796913 -0.590324 -0.128246
23.8391 -0.486249 -9.29633 0.862008 -0.497544 -0.0969171
24.2304 0.194244 -8.84662 0.916406 -0.379101 -0.128383
24.434 0.626216 -8.57268 0.923977 -0.365268 -0.113342
24.6689 1.23424 -8.63862 0.917138 -0.36967 -0.149006
24.6271 1.78422 -9.62346 0.909273 -0.272978 -0.314175
24.6774 1.98665 -9.61158 0.915147 -0.18892 -0.356111
24.7748 2.15487 -9.42267 0.929837 -0.134851 -0.342373
24.6119 2.17133 -9.884 0.903117 -0.108424 -0.415481
23.883 2.5204 -10.9128 0.799924 -0.0336703 -0.599157
23.6722 2.43271 -11.1979 0.781003 0.143885 -0.607726
23.6201 2.65616 -11.1465 0.620182 0.410078 -0.668738
24.0614 2.74624 -10.6723 0.725267 0.197608 -0.659499
23.4189 2.28327 -11.5515 0.704068 0.222818 -0.674271
23.3176 2.54522 -11.5066 0.581514 0.461465 -0.669993
22.4841 2.38451 -12.1494 0.45379 0.423253 -0.784175
22.4529 2.90859 -11.7172 0.361019 0.722387 -0.589765
21.5198 2.69873 -12.6119 0.54448 0.396053 -0.73938
21.9058 2.57622 -12.4026 0.529386 0.449875 -0.719279
21.8757 2.41512 -12.4834 0.479448 0.206782 -0.852861
22.18 2.34319 -12.341 0.467015 0.311243 -0.827662
22.0391 2.13328 -12.4326 0.370788 -0.0142826 -0.928608
22.4724 2.18571 -12.2236 0.473046 0.177878 -0.862894
22.2386 2.02814 -12.3553 0.396136 0.0305637 -0.917683
21.5276 2.55609 -12.6485 0.405332 0.0298802 -0.913681
21.1311 2.80321 -12.8203 0.315138 -0.0570014 -0.947333
20.7873 3.15393 -12.9198 0.380077 0.294973 -0.87666
20.1519 3.64506 -12.9144 0.412884 0.635743 -0.652194
19.8871 3.61888 -13.037 0.224833 0.281424 -0.932872
19.3319 4.14407 -12.9048 0.242185 0.658818 -0.712254
20.2941 3.81049 -12.5774 0.507964 0.728177 -0.460142
20.6902 3.48724 -12.6671 0.548972 0.717433 -0.428858
18.7978 4.60156 -12.5722 0.146439 0.753174 -0.641315
18.302 4.49711 -12.6881 -0.0782884 0.623325 -0.778034
16.9418 4.39725 -11.982 -0.703254 0.103497 -0.703365
15.983 5.24609 -9.85641 -0.7538 0.31976 -0.574054
15.5452 6.03317 -8.60641 -0.796615 0.388861 -0.462809
15.1926 5.43822 -8.29589 -0.907274 0.270934 -0.321634
14.9743 4.89383 -7.37702 -0.983283 0.170171 0.0647867
15.096 4.84669 -8.15446 -0.984937 0.0666764 -0.15954
15.0757 5.37791 -7.39458 -0.975686 0.190134 0.109023
15.1518 5.39201 -6.94031 -0.959503 0.191759 0.206355
15.1531 5.09497 -6.65826 -0.934182 0.17084 0.313238
15.3484 5.87165 -6.53269 -0.958575 0.0467611 0.280975
15.4615 5.95195 -6.32818 -0.868915 -0.0990368 0.484952
16.1874 5.8357 -5.76922 -0.459532 -0.103642 0.882093
15.8778 5.55418 -5.92194 -0.655147 0.109946 0.747459
16.3002 4.74208 -5.65717 -0.240369 0.0636512 0.968592
16.5641 5.34719 -5.64553 -0.157306 0.0542348 0.98606
15.5899 4.73471 -6.01253 -0.668083 0.0141292 0.743953
15.5876 3.74327 -6.04473 -0.661543 -0.137421 0.737209
15.7923 2.67965 -6.08595 -0.6716 -0.151814 0.725194
15.5972 2.43716 -6.30952 -0.675321 -0.163408 0.719193
15.9708 1.99218 -6.06604 -0.718805 -0.289196 0.632207
16.6169 0.656305 -5.95445 -0.698854 -0.350585 0.623453
16.401 0.493258 -6.34388 -0.710627 -0.422931 0.562261
17.4763 0.8848 -5.3903 -0.26079 -0.124251 0.957366
17.0685 0.912836 -5.51932 -0.342901 -0.299147 0.890466
18.0451 1.00019 -5.2613 -0.0938081 0.186428 0.97798
19.1104 1.76106 -5.35254 -0.00130967 0.172228 0.985056
18.975 2.71839 -5.49311 0.0541688 0.159115 0.985773
19.8278 2.47371 -5.48218 0.00345115 0.155719 0.987795
19.5398 1.17097 -5.07832 -0.112932 0.371532 0.921526
19.5343 0.772189 -4.91124 -0.0863291 0.232098 0.968854
21.0591 0.278505 -4.67506 -0.130111 -0.134467 0.982339
21.812 0.0130402 -4.55826 -0.165728 -0.17595 0.970348
22.2013 -0.0647043 -4.52619 -0.0486712 -0.152983 0.987029
21.7393 -1.23286 -4.96429 -0.221399 -0.449749 0.865279
21.2579 -1.2809 -5.44099 -0.335716 -0.870979 0.358736
20.8714 -0.927733 -5.07346 -0.288499 -0.541455 0.78968
21.6853 -1.42292 -5.33987 -0.196032 -0.915333 0.351764
22.1923 -1.54502 -5.37385 -0.0715815 -0.929458 0.361918
22.5423 -1.66243 -5.69446 0.0246709 -0.942331 0.333771
22.4266 -1.84378 -6.35401 -0.214139 -0.970727 0.108785
22.3838 -1.80484 -6.7675 -0.36165 -0.891971 -0.271287
22.4678 -1.5687 -7.32973 -0.486299 -0.767299 -0.41805
22.1812 -0.868367 -8.17461 -0.653671 -0.686514 -0.318453
22.3334 -1.28222 -7.61918 -0.636368 -0.679053 -0.365954
22.0106 -0.878847 -7.78111 -0.644362 -0.687878 -0.334098
21.6927 -0.551476 -7.84817 -0.643014 -0.689627 -0.333087
21.5052 -0.255562 -8.16015 -0.637583 -0.712248 -0.293582
22.104 -0.732334 -8.33211 -0.644017 -0.703867 -0.299688
21.6026 -0.226614 -8.44812 -0.642414 -0.710871 -0.286298
22.0097 -0.544677 -8.56481 -0.643543 -0.717903 -0.265458
22.3008 -0.770002 -8.65267 -0.629536 -0.737309 -0.245069
22.5109 -0.973015 -8.57894 -0.633251 -0.726855 -0.265849
22.8005 -1.15346 -8.74083 -0.459756 -0.850701 -0.254821
23.0268 -1.22188 -8.8589 -0.268708 -0.920106 -0.284959
22.9426 -1.13951 -9.05923 -0.367876 -0.905029 -0.213516
23.1192 -1.04459 -9.67834 0.00728838 -0.98035 -0.197131
23.4638 -0.944008 -9.46713 0.641001 -0.746203 -0.17972
24.0021 -0.183139 -9.28978 0.899221 -0.420134 -0.122024
24.1624 0.15416 -9.17648 0.920269 -0.358627 -0.156497
24.4363 0.810162 -9.05643 0.921593 -0.352144 -0.163281
24.4843 1.72513 -9.93417 0.882212 -0.217306 -0.417708
24.3187 2.1139 -10.3701 0.816754 0.00988192 -0.576902
24.5432 2.32456 -10.011 0.831752 0.0463856 -0.553205
23.8941 2.14949 -10.8728 0.801201 0.0621979 -0.595154
23.892 1.93456 -10.9426 0.826213 0.0259191 -0.562761
23.548 1.86987 -11.4497 0.774733 0.0541871 -0.629962
23.3068 2.14638 -11.6712 0.647759 0.0694471 -0.758673
22.9837 2.23848 -11.9151 0.54852 0.112099 -0.828589
23.2259 1.78439 -11.7466 0.585894 0.030772 -0.809803
22.5233 1.9977 -12.2145 0.520527 0.0119505 -0.853762
22.2716 1.80108 -12.3324 0.388695 0.0147775 -0.921248
22.455 1.40902 -12.2677 0.446516 0.0326195 -0.894181
22.5667 1.69883 -12.19 0.527627 0.0419432 -0.84844
22.2874 1.30742 -12.3438 0.299367 -0.0926857 -0.949626
22.0005 1.84595 -12.4209 0.263299 -0.0761838 -0.961701
22.0832 1.35136 -12.3904 0.13164 -0.0853644 -0.987615
21.4189 1.88816 -12.5472 -0.051397 -0.291391 -0.955222
21.4784 2.29174 -12.6426 0.106464 -0.235044 -0.966137
21.7631 1.49533 -12.4299 0.0381905 -0.261097 -0.964557
18.5693 11.7743 -7.40803 0.42209 0.361359 -0.83142
21.0385 1.92416 -12.5217 -0.196922 -0.377909 -0.904658
21.1977 1.65481 -12.4332 -0.265384 -0.563838 -0.782086
20.8877 2.91199 -12.9095 -0.0444209 -0.373516 -0.926559
20.1736 3.22179 -12.9879 -0.022222 -0.344268 -0.938609
19.3993 3.63451 -13.1114 -0.00469406 -0.0550617 -0.998472
19.1635 4.0185 -13.0338 0.07883 0.466688 -0.880902
18.6457 4.08028 -12.9827 -0.194186 0.28627 -0.938265
17.5629 4.16804 -12.5971 -0.430233 0.117073 -0.895094
18.5681 3.79049 -13.0144 -0.325934 -0.0261221 -0.945032
17.6445 3.69401 -12.6319 -0.443676 -0.295437 -0.84609
16.6178 4.10881 -11.5376 -0.851904 0.103857 -0.513296
15.9586 4.5811 -10.2591 -0.809705 0.378531 -0.448432
16.2091 4.61483 -10.7024 -0.854552 0.193489 -0.481978
15.2798 4.96025 -8.7497 -0.929216 0.0533823 -0.36566
15.4228 5.3428 -8.95664 -0.869189 0.157319 -0.468788
15.393 4.60848 -9.16606 -0.870971 0.176114 -0.458687
15.7344 5.43991 -9.42491 -0.825365 0.20425 -0.526361
15.16 4.94562 -8.39973 -0.959147 0.103749 -0.263197
15.0138 4.38501 -6.83244 -0.98639 0.048031 0.157253
14.9512 4.37841 -7.42848 -0.994782 0.0271499 -0.0983398
15.2415 4.73581 -6.40546 -0.853936 0.0857658 0.513261
15.4147 5.04017 -6.20473 -0.76654 0.156157 0.622922
15.2886 4.06565 -6.32158 -0.725658 -0.0636587 0.685105
15.3252 3.27421 -6.41823 -0.749752 -0.167547 0.640157
15.2632 2.95816 -6.60331 -0.867668 -0.139564 0.477152
15.3609 2.36568 -6.62467 -0.882237 -0.308066 0.356025
15.1382 2.36351 -7.36814 -0.932168 -0.272074 0.238826
15.6099 1.73215 -6.76163 -0.814136 -0.389688 0.430495
15.9567 1.51495 -6.2959 -0.792631 -0.308779 0.525729
16.7892 -0.11077 -6.3988 -0.682308 -0.546951 0.485078
17.1909 0.0202049 -5.88379 -0.56053 -0.46447 0.685619
17.6794 0.158634 -5.57269 -0.376956 -0.478774 0.792894
18.0157 0.449728 -5.32099 -0.337836 -0.308284 0.889285
18.4302 0.264678 -5.22293 -0.387045 -0.286728 0.876346
19.7736 0.465477 -4.82043 -0.16996 0.117032 0.978477
18.849 0.76195 -5.0434 -0.23268 0.0971439 0.96769
18.4569 1.03129 -5.20284 -0.113844 0.271287 0.955742
19.6549 -0.118045 -4.91318 -0.144299 -0.189071 0.971303
19.9691 -0.697055 -5.16973 -0.220151 -0.809265 0.544632
19.4495 -0.634444 -5.20238 -0.242726 -0.946737 0.211597
19.9749 -0.789136 -5.5375 -0.276393 -0.960719 -0.0250105
20.7802 -1.06305 -5.26307 -0.330024 -0.837631 0.435268
22.0714 -1.61723 -5.7503 -0.286579 -0.943637 0.165595
22.1643 -1.73643 -6.33833 -0.447139 -0.893585 0.0396598
21.6258 -1.3466 -6.68157 -0.598053 -0.782931 -0.171324
22.1385 -1.61851 -6.87787 -0.506405 -0.769052 -0.390016
21.9598 -1.61474 -6.54739 -0.538257 -0.834453 -0.118187
22.2291 -1.45694 -7.2208 -0.507123 -0.702596 -0.499184
22.0331 -1.09775 -7.47272 -0.567244 -0.667592 -0.482239
21.7768 -0.769825 -7.61985 -0.58422 -0.652349 -0.482833
21.4248 -0.340808 -7.76417 -0.617871 -0.710225 -0.337365
21.0793 -0.15283 -7.61019 -0.481246 -0.722611 -0.496222
21.0585 0.0324328 -7.96088 -0.552858 -0.752512 -0.357875
20.827 0.241435 -8.05593 -0.477188 -0.736516 -0.479411
20.5121 0.285495 -7.81505 -0.36893 -0.74802 -0.551685
20.6396 0.536775 -8.27495 -0.520463 -0.765917 -0.377477
21.2972 -0.00178972 -8.31883 -0.63091 -0.709554 -0.313824
21.1341 0.206823 -8.44669 -0.626627 -0.723713 -0.289098
21.5736 -0.114686 -8.67968 -0.651597 -0.71746 -0.246317
21.9657 -0.435441 -8.80225 -0.662413 -0.726458 -0.182942
22.1663 -0.546017 -9.15895 -0.656898 -0.740257 -0.143198
22.463 -0.828257 -8.90491 -0.641758 -0.747424 -0.171766
22.7185 -1.00704 -9.1129 -0.585071 -0.787701 -0.19292
22.5209 -0.819054 -9.31999 -0.617903 -0.778791 -0.108081
22.9502 -1.05568 -9.46179 -0.266083 -0.946136 -0.184461
23.1317 -0.971365 -10.0261 0.0985958 -0.965619 -0.240538
23.2917 -1.00839 -9.73881 0.433312 -0.877919 -0.203714
23.3154 -0.890337 -10.1164 0.469582 -0.844439 -0.257711
23.4777 -0.781077 -10.0737 0.685285 -0.688197 -0.238264
23.5516 -0.783487 -9.77549 0.749838 -0.636231 -0.18153
23.7315 -0.522361 -9.86205 0.837221 -0.498368 -0.225147
23.8826 -0.343898 -9.5944 0.874367 -0.459341 -0.156486
24.1047 0.097372 -9.40289 0.923806 -0.355453 -0.14225
24.386 1.33568 -9.91704 0.903533 -0.259918 -0.340692
24.1264 0.803827 -10.2034 0.884037 -0.212676 -0.416231
24.3954 1.85814 -10.1797 0.857224 -0.1598 -0.489521
24.1086 1.82219 -10.6244 0.828684 -0.105139 -0.549753
23.9485 1.60007 -10.8245 0.839051 -0.0770887 -0.538563
23.387 1.5835 -11.6423 0.67411 0.0337912 -0.737858
23.1948 1.4774 -11.7945 0.574486 0.0248274 -0.818137
22.6487 1.13329 -12.1685 0.509277 -0.011529 -0.860525
22.0595 1.13947 -12.352 -0.00790546 -0.297343 -0.954738
22.1217 0.877279 -12.2521 -0.144527 -0.420711 -0.895608
21.8989 1.0012 -12.2511 -0.373697 -0.517276 -0.76992
20.4021 1.90823 -12.2346 -0.356901 -0.637027 -0.683241
20.8827 1.77336 -12.379 -0.360001 -0.52649 -0.7702
21.5168 1.31277 -12.2816 -0.364549 -0.591176 -0.719455
21.72 1.30772 -12.3559 -0.239279 -0.387807 -0.890141
20.6065 2.23898 -12.5621 -0.17328 -0.418187 -0.89168
20.9293 2.63093 -12.7805 -0.0704891 -0.402668 -0.912628
19.4986 2.34663 -12.2764 -0.158868 -0.605454 -0.779863
20.0625 2.24619 -12.3508 -0.271534 -0.571578 -0.774318
19.8049 2.03794 -12.0661 -0.233502 -0.694575 -0.680472
19.1142 2.066 -11.9689 -0.0918747 -0.677443 -0.729815
20.2366 2.63086 -12.6618 -0.158974 -0.519831 -0.839346
19.2988 3.32021 -12.9771 -0.139787 -0.548776 -0.824199
18.0764 3.22607 -12.5927 -0.271268 -0.48265 -0.832744
18.4991 2.90286 -12.5093 -0.202429 -0.564546 -0.800194
19.0477 1.58673 -11.4523 0.0265111 -0.728619 -0.684406
18.5647 2.24187 -12.0349 -0.15387 -0.595105 -0.78878
17.768 2.00061 -11.6847 -0.279975 -0.515997 -0.809544
17.1412 2.73046 -11.8253 -0.496255 -0.399159 -0.770975
16.8988 3.55138 -11.9344 -0.643573 -0.220293 -0.732997
16.0899 3.87723 -10.6976 -0.84822 0.0209317 -0.52923
15.6888 4.73876 -9.63236 -0.839196 0.239037 -0.488478
14.9816 3.67087 -7.48889 -0.995947 -0.0527491 0.0728456
14.973 3.89944 -7.70053 -0.999822 -0.00892636 -0.0166358
15.0631 3.81748 -6.82043 -0.937376 -0.102724 0.332829
15.0949 3.3753 -6.90643 -0.933399 -0.135115 0.332431
15.0479 2.67222 -7.58661 -0.984582 -0.119121 0.128099
15.078 3.09208 -7.10653 -0.987562 -0.0842296 0.132767
15.3011 2.00639 -7.23036 -0.908745 -0.333084 0.251471
16.177 0.616541 -6.63733 -0.827201 -0.404108 0.39043
15.8146 1.27096 -6.76859 -0.830918 -0.386767 0.399983
15.9511 0.547222 -7.22412 -0.822873 -0.429897 0.371575
20.5903 0.761352 -9.14939 -0.485088 -0.862868 -0.141946
21.0188 0.422225 -8.81059 -0.578672 -0.786957 -0.214096
17.4564 -0.451655 -6.36115 -0.245669 -0.901713 0.355753
17.3824 -0.266613 -5.99979 -0.487871 -0.659461 0.57192
18.5802 -0.228673 -5.47768 -0.415706 -0.69237 0.589756
19.2388 -0.598274 -5.42721 -0.442562 -0.894541 0.0627285
18.916 -0.224232 -5.17618 -0.344363 -0.377203 0.859728
19.1936 -0.0163858 -4.98358 -0.237233 -0.378592 0.894644
19.3361 -0.536514 -5.89501 -0.255254 -0.940172 -0.225659
20.5062 -0.947405 -5.608 -0.32009 -0.85642 -0.405077
20.5195 -0.549863 -6.3524 -0.419413 -0.798675 -0.431523
20.7955 -0.809578 -6.17037 -0.446349 -0.823506 -0.350158
21.0981 -0.994285 -6.27458 -0.583036 -0.785163 -0.20878
20.7916 -0.455633 -7.01216 -0.594705 -0.715558 -0.366473
21.6031 -1.39861 -5.95887 -0.51484 -0.855212 -0.0595976
21.4634 -1.1233 -6.9048 -0.569744 -0.71468 -0.40574
21.3533 -0.424849 -7.56839 -0.573125 -0.626155 -0.528637
21.6873 -0.959244 -7.31708 -0.5257 -0.638089 -0.562568
20.5705 -0.13154 -7.23791 -0.388209 -0.7371 -0.553152
20.2906 0.133427 -7.4734 -0.225566 -0.796242 -0.561355
19.5787 0.0749649 -7.16746 -0.185654 -0.811061 -0.554718
20.125 0.61498 -7.96945 -0.396219 -0.784785 -0.476574
20.324 0.778143 -8.56986 -0.399349 -0.886611 -0.233325
21.6676 -0.130868 -8.90775 -0.67345 -0.711183 -0.201701
21.233 0.239526 -8.77186 -0.649732 -0.718704 -0.247614
21.2913 0.262543 -9.02106 -0.658713 -0.729728 -0.183287
21.5846 0.00256677 -9.11394 -0.692749 -0.708555 -0.134346
22.3263 -0.67523 -9.09967 -0.613701 -0.776048 -0.145327
22.667 -0.868428 -9.81653 -0.53917 -0.829464 -0.145895
22.7801 -0.982031 -9.42836 -0.497403 -0.856548 -0.137534
22.8737 -0.985686 -9.74172 -0.333649 -0.927711 -0.167425
22.9507 -0.945053 -10.0561 -0.270723 -0.942143 -0.197676
22.9952 -0.879473 -10.3783 -0.0908115 -0.956146 -0.278456
23.2112 -0.871952 -10.3264 0.273991 -0.917303 -0.288938
23.3346 -0.685287 -10.6747 0.649772 -0.685353 -0.328766
23.5348 -0.503187 -10.4892 0.792106 -0.525632 -0.310288
23.6217 -0.587667 -10.0955 0.813381 -0.520521 -0.259749
23.6281 -0.136099 -10.8117 0.832452 -0.440458 -0.336185
23.8892 -0.0608771 -10.1746 0.870895 -0.41568 -0.262205
23.6892 0.0233513 -10.8033 0.858441 -0.210367 -0.467787
23.8784 0.388492 -10.5517 0.87716 -0.157571 -0.453609
23.7151 1.35445 -11.1526 0.84062 -0.154553 -0.519106
23.7244 0.98336 -10.9913 0.837692 -0.182231 -0.514843
23.5964 1.22093 -11.2997 0.819078 -0.190569 -0.541106
23.5142 1.47819 -11.501 0.823026 -0.0608852 -0.564731
23.1993 0.907607 -11.7487 0.743665 -0.156112 -0.650071
22.9545 0.913012 -11.9646 0.603889 -0.0677299 -0.794185
23.3747 1.29793 -11.6295 0.721182 -0.107778 -0.68431
22.8107 0.724757 -12.0289 0.471628 -0.161394 -0.866902
22.5757 0.806454 -12.1589 0.348063 -0.168624 -0.922181
22.3348 0.772761 -12.2142 0.113953 -0.306659 -0.944974
22.2505 0.504319 -12.0844 -0.264061 -0.49548 -0.827509
22.4273 0.130595 -11.9077 -0.145603 -0.552381 -0.820777
22.1968 0.34005 -11.947 -0.491413 -0.556887 -0.669619
21.7727 0.912597 -12.0916 -0.520367 -0.59435 -0.613161
21.6351 0.449159 -11.4402 -0.658293 -0.600972 -0.453302
20.9844 1.39945 -12.026 -0.392735 -0.720927 -0.570985
20.7145 1.69652 -12.2147 -0.380962 -0.681908 -0.624396
20.4134 1.56147 -11.8677 -0.41059 -0.755805 -0.510074
20.4613 2.06979 -12.3959 -0.323719 -0.568979 -0.755956
19.524 1.89731 -11.8103 -0.0986455 -0.78787 -0.60789
18.6778 1.15481 -11.1374 0.187438 -0.637421 -0.74737
18.3961 1.34343 -11.3373 -0.000228578 -0.535001 -0.844852
18.5446 1.60725 -11.5153 0.0718881 -0.632115 -0.771532
16.9693 2.19512 -11.3845 -0.479482 -0.410684 -0.775523
16.4508 3.23676 -11.2349 -0.758399 -0.216578 -0.614756
15.9694 3.27283 -10.4511 -0.880315 -0.029746 -0.473457
15.8036 3.1432 -10.1087 -0.884873 -0.0920865 -0.45664
15.6289 3.67779 -9.82309 -0.878638 0.0463169 -0.475236
15.3151 3.86279 -9.2707 -0.885654 0.066973 -0.459491
15.163 2.01443 -8.0255 -0.970005 -0.23795 0.0497075
15.3849 1.46595 -7.6273 -0.944551 -0.296561 0.140981
15.5514 0.93972 -7.79632 -0.935159 -0.334263 0.117242
20.4883 0.76057 -8.82769 -0.268901 -0.959943 -0.0787572
15.6669 0.998185 -7.32796 -0.855805 -0.382423 0.348355
17.1082 -0.389612 -6.49049 -0.334868 -0.918204 0.211578
17.0836 -0.495366 -7.22333 -0.193243 -0.97612 0.0992294
17.88 -0.386588 -5.96011 -0.122267 -0.883845 0.451519
18.1162 -0.257426 -5.67776 0.0366454 -0.923773 0.381182
18.4338 -0.278588 -5.73001 0.178355 -0.981604 0.068136
18.818 -0.302702 -6.03859 -0.37608 -0.910549 -0.171653
18.9822 -0.211544 -6.44857 0.152503 -0.967739 -0.20056
19.3288 -0.305899 -6.45087 -0.290553 -0.881295 -0.372691
20.156 -0.502231 -6.2949 -0.110233 -0.912376 -0.394232
20.1596 -0.212592 -6.93133 -0.119836 -0.898633 -0.422016
21.1179 0.503075 -9.44989 -0.552842 -0.826455 -0.106479
21.0621 0.524296 -9.63437 -0.409425 -0.911797 0.0315854
21.339 0.354798 -9.64065 -0.616693 -0.787026 -0.0167281
19.6062 -0.419861 -6.38404 -0.170301 -0.872885 -0.457241
19.9057 0.205405 -7.41881 -0.27221 -0.679842 -0.680967
19.8229 0.692823 -7.87685 -0.292836 -0.706063 -0.644765
19.8992 0.810146 -8.3894 0.24154 -0.970148 0.0217293
19.8841 0.810191 -8.82718 0.443108 -0.896359 -0.0140204
20.0892 0.890788 -9.35046 0.11835 -0.992946 -0.00720829
19.8361 0.825564 -9.62397 0.270646 -0.956412 -0.109665
20.7846 0.669029 -9.20146 -0.51587 -0.848456 -0.118322
21.1877 0.37934 -9.15693 -0.598384 -0.780522 -0.18089
23.3347 -1.05599 -9.36849 0.392059 -0.898591 -0.197041
21.4839 0.128256 -9.28329 -0.693542 -0.708832 -0.128678
21.8327 -0.227884 -9.19142 -0.677586 -0.723546 -0.131754
22.4137 -0.686769 -9.59756 -0.658012 -0.740367 -0.137392
22.1991 -0.51184 -9.47577 -0.66719 -0.731412 -0.141047
21.7583 -0.132319 -9.40066 -0.673582 -0.728582 -0.124319
21.4751 0.212324 -9.72282 -0.703401 -0.705527 -0.0863632
21.2561 0.359283 -9.32263 -0.692698 -0.706795 -0.143561
21.7988 -0.129336 -9.61573 -0.67673 -0.721468 -0.146695
21.6554 0.0375692 -9.76111 -0.700322 -0.702798 -0.124995
22.3709 -0.589243 -9.85615 -0.670039 -0.725191 -0.158572
22.5858 -0.744528 -10.0684 -0.631761 -0.756759 -0.167906
23.0144 -0.75106 -10.768 -0.000679887 -0.93692 -0.349544
22.8875 -0.689488 -10.9066 -0.27294 -0.912703 -0.304099
23.0675 -0.646016 -11.0042 0.138149 -0.864995 -0.482388
23.0558 -0.200891 -11.4895 0.547836 -0.442183 -0.710176
23.1994 -0.264766 -11.3323 0.65146 -0.442918 -0.615973
22.9816 -0.450697 -11.334 0.308369 -0.7018 -0.642173
23.2054 -0.555493 -11.0404 0.535791 -0.651969 -0.53653
23.3813 -0.402196 -10.9933 0.73715 -0.505866 -0.448005
23.1684 -0.729675 -10.7995 0.351763 -0.853116 -0.385299
23.4224 -0.115885 -11.1211 0.775917 -0.270255 -0.570013
23.4012 0.964006 -11.4998 0.814143 -0.171092 -0.554887
23.5597 0.403172 -11.0896 0.839006 -0.143327 -0.524906
23.7986 0.84338 -10.8184 0.855868 -0.173637 -0.487176
24.0668 1.41995 -10.6036 0.854578 -0.189567 -0.483489
23.3483 0.288692 -11.3695 0.789406 -0.186 -0.585014
23.0845 0.602342 -11.795 0.703959 -0.211653 -0.677971
23.2317 0.0410982 -11.4289 0.716923 -0.257806 -0.647732
22.9034 0.448169 -11.908 0.568843 -0.229065 -0.789903
22.6994 0.397063 -12.0068 0.387343 -0.336892 -0.858178
22.5566 0.554284 -12.1066 0.282528 -0.271621 -0.92
22.5573 0.281045 -11.9929 0.0716816 -0.445396 -0.89246
21.6197 0.766287 -11.7798 -0.578548 -0.618582 -0.531638
21.421 1.18139 -12.0816 -0.483815 -0.671582 -0.561161
21.1974 1.04923 -11.6946 -0.497028 -0.703414 -0.508106
20.8572 1.21962 -11.6548 -0.425845 -0.783765 -0.452071
20.0845 1.798 -11.9007 -0.346738 -0.740822 -0.575287
20.0074 1.53935 -11.4236 -0.343309 -0.8121 -0.471839
19.974 1.67513 -11.6181 -0.266587 -0.815273 -0.514063
19.5307 1.68729 -11.5223 0.00234791 -0.802971 -0.596014
19.7489 1.49418 -11.238 -0.188728 -0.889031 -0.417139
19.9549 1.34292 -10.9437 -0.219682 -0.931355 -0.290374
19.6863 1.25349 -10.7187 0.350981 -0.854453 -0.383043
19.6938 1.12363 -10.3468 0.407544 -0.843134 -0.350761
19.3372 1.12771 -10.768 0.359772 -0.804607 -0.47241
19.4561 1.32983 -11.0335 0.290642 -0.754379 -0.588592
18.6808 0.849692 -10.8041 0.291201 -0.721073 -0.628694
17.8541 0.400033 -10.644 0.127157 -0.70112 -0.701614
18.0036 0.91956 -11.0835 0.121194 -0.613458 -0.780373
17.9554 1.23347 -11.2733 0.0589496 -0.546336 -0.835489
17.6134 1.32949 -11.2843 -0.185977 -0.422463 -0.887095
17.2878 0.717942 -10.8582 -0.422219 -0.464502 -0.778441
16.8642 1.21691 -10.8572 -0.576762 -0.356954 -0.734799
16.7103 0.794713 -10.5123 -0.70195 -0.295315 -0.648116
17.3779 0.979994 -11.0552 -0.392675 -0.387818 -0.833909
16.9547 1.69301 -11.1316 -0.445419 -0.348802 -0.824584
16.3983 2.80762 -11.0393 -0.817392 -0.132226 -0.560702
16.1143 3.1368 -10.7035 -0.815618 -0.171442 -0.552608
15.9429 2.38717 -10.2261 -0.851504 -0.138824 -0.505637
15.7361 2.1445 -9.78944 -0.865036 -0.0867071 -0.49416
15.5966 3.07167 -9.68983 -0.882541 -0.103637 -0.458673
15.7478 4.07069 -10.0433 -0.876862 0.126541 -0.463789
15.2706 3.3516 -9.14306 -0.927643 -0.0171215 -0.373077
15.1445 4.15319 -8.77309 -0.940413 0.13974 -0.309995
15.3001 2.91646 -9.08488 -0.904603 -0.0864166 -0.417403
15.0133 2.98529 -8.17398 -0.987821 -0.0490815 -0.147654
15.0408 3.82891 -8.41833 -0.984315 0.0218694 -0.175057
14.9879 3.79857 -8.04664 -0.995012 0.00697174 -0.0995064
15.0812 2.36971 -8.23845 -0.990804 -0.127111 -0.0463725
15.5069 0.926035 -8.15875 -0.92865 -0.367201 -0.052651
16.1902 0.212097 -7.14301 -0.783809 -0.551565 0.285342
16.4806 -0.040225 -6.87122 -0.76044 -0.580991 0.290141
16.7955 -0.418051 -7.25694 -0.439866 -0.87579 0.198768
17.9809 -0.428086 -6.17441 0.135532 -0.990633 -0.0166382
18.1257 -0.399633 -6.40551 0.246954 -0.96821 -0.0397918
