17.8813 17.4563 -18.1057 0.742959 0.386633 -0.546376
17.406 19.1021 -17.6293 0.673273 0.401471 -0.620906
17.3461 19.6666 -17.3391 0.658567 0.425876 -0.620418
17.4992 19.5239 -17.2036 0.835911 0.368037 -0.407188
17.7535 18.9583 -17.1618 0.893562 0.359789 -0.268512
17.9652 18.4584 -17.124 0.89797 0.354983 -0.260071
18.3034 17.6149 -16.8943 0.949824 0.312744 -0.00511908
18.1676 17.9975 -16.9938 0.938763 0.337581 -0.0690086
18.9728 15.3102 -16.7742 0.92522 0.333828 0.180349
19.2466 14.5662 -16.1931 0.850084 0.50126 0.161539
19.5208 14.2738 -16.3333 0.653392 0.702647 0.281721
19.4543 14.0939 -15.8148 0.566945 0.719908 0.400383
20.2422 13.7838 -16.0965 0.284585 0.83207 0.4761
20.7518 13.8712 -16.0971 -0.324112 0.645666 0.691424
21.1133 14.1029 -16.051 -0.497232 0.555656 0.666339
21.6403 14.4133 -15.9098 -0.430006 0.423248 0.797468
21.1597 14.5396 -16.3455 -0.546604 0.496203 0.674542
21.6044 15.3195 -16.6629 -0.704484 0.545048 0.454561
22.0059 15.6262 -16.3984 -0.743791 0.45094 0.493384
22.0706 15.9356 -17.2375 -0.809216 0.580154 -0.0926849
22.1975 16.1895 -16.7355 -0.830052 0.542405 0.129657
22.4704 16.6041 -16.4869 -0.848268 0.46124 0.26019
21.5454 15.1541 -17.4408 -0.789771 0.559239 -0.252021
22.0034 15.5912 -17.7155 -0.661197 0.561025 -0.498066
22.3912 16.3777 -17.2287 -0.772699 0.605176 -0.19157
22.7628 16.9691 -16.7957 -0.767184 0.600232 -0.226162
22.9112 17.3506 -16.3581 -0.825771 0.539552 -0.164277
23.0715 17.3679 -16.8037 -0.736108 0.590403 -0.331012
22.7067 17.0036 -16.4844 -0.852441 0.52244 -0.0200361
23.1595 17.7732 -16.2665 -0.783592 0.57771 -0.22855
23.4347 18.1569 -16.1542 -0.749193 0.634225 -0.190965
23.8819 18.6909 -16.0495 -0.708805 0.665337 -0.234354
23.6694 18.3158 -16.3376 -0.634544 0.645283 -0.425398
24.0017 18.6525 -16.2827 -0.490866 0.638691 -0.592557
24.4159 19.0367 -16.1882 -0.333972 0.585712 -0.738515
24.0706 18.4548 -16.467 -0.223602 0.538518 -0.812404
24.522 18.8242 -16.3417 -0.0969168 0.448994 -0.888263
24.1166 18.1681 -16.6334 -0.0564025 0.448689 -0.891907
24.8559 19.3925 -16.0888 -0.189221 0.558 -0.80798
25.2451 19.5423 -16.0269 0.0444829 0.535677 -0.843251
25.6422 18.7744 -16.195 0.410412 0.308501 -0.858131
25.8023 18.3711 -16.2566 0.486837 0.315967 -0.814343
26.0657 17.5619 -16.3966 0.59893 0.280771 -0.749967
26.1742 17.8253 -16.1884 0.725425 0.259965 -0.63732
26.1894 18.2176 -15.9951 0.793309 0.244007 -0.557782
26.3147 19.0926 -15.5061 0.778823 0.411476 -0.473415
25.9695 19.4247 -15.6901 0.649659 0.439064 -0.620617
26.0953 19.3801 -15.5377 0.757819 0.611643 -0.227164
26.236 19.2229 -15.3357 0.805497 0.578444 0.128752
24.477 18.9322 -14.8336 -0.62029 0.117171 0.775572
24.7249 19.2435 -14.7535 -0.502974 0.282689 0.816764
24.2746 18.3567 -14.9933 -0.712785 0.0943549 0.695007
24.1934 18.1524 -15.0724 -0.592601 0.00543066 0.805478
23.9504 18.3484 -15.2568 -0.621158 0.189883 0.760334
23.8053 17.9905 -15.2899 -0.553437 0.0219956 0.8326
24.1831 17.6158 -15.097 -0.561212 -0.0461501 0.826385
23.7813 17.2546 -15.3343 -0.487223 -0.0473384 0.871994
23.4802 17.1993 -15.5209 -0.551516 -0.00313937 0.834158
22.9677 16.6527 -15.8481 -0.605767 0.092947 0.790194
22.608 16.2182 -16.0741 -0.665333 0.218004 0.714007
22.7342 16.082 -15.945 -0.544111 0.136678 0.827806
22.296 15.784 -16.195 -0.632765 0.306654 0.711036
22.5387 15.6358 -15.9749 -0.504623 0.242719 0.828519
22.0612 15.2066 -16.0953 -0.452379 0.42298 0.785138
21.9655 13.9713 -15.6013 -0.238653 0.342306 0.908775
22.8472 13.9633 -15.3803 -0.217894 0.303821 0.927478
21.5277 12.7104 -14.3726 0.33139 0.940903 -0.0698734
21.5011 12.7877 -14.0087 0.194544 0.956986 -0.215246
22.0102 12.6832 -14.0345 -0.0240871 0.998082 -0.0570305
21.6838 12.7054 -14.5905 -0.0754286 0.931634 0.355485
21.8643 12.801 -13.7084 0.199706 0.881443 -0.427991
20.9351 13.0713 -13.7613 0.296041 0.842911 -0.449289
21.3862 14.2044 -12.9741 0.157762 0.208748 -0.965161
21.7643 14.5028 -12.8765 0.15502 0.098828 -0.982956
22.44 14.2647 -12.8389 0.0732793 0.150239 -0.98593
22.721 14.8781 -12.7321 0.0649597 0.152467 -0.986171
23.5681 16.6306 -12.4741 -0.0910614 0.158934 -0.983081
22.9428 16.6495 -12.4716 0.0325972 0.116203 -0.99269
23.4313 17.2798 -12.3684 0.00382047 0.157527 -0.987507
23.8413 17.2127 -12.4064 -0.0932335 0.18151 -0.978959
24.1756 16.9997 -12.4912 -0.138576 0.219791 -0.965654
24.3593 16.351 -12.6837 -0.182662 0.226085 -0.956828
24.6948 16.9781 -12.5703 -0.029035 0.240286 -0.970268
24.9758 17.5318 -12.4316 0.0970247 0.194904 -0.976012
25.0904 17.0333 -12.5155 0.18975 0.216579 -0.957647
24.8486 16.5343 -12.6782 0.14624 0.212611 -0.966132
25.2605 17.1352 -12.4327 0.376646 0.163969 -0.91173
25.4565 16.9588 -12.34 0.604679 0.107331 -0.789204
25.5762 16.3883 -12.299 0.748289 0.0603975 -0.660618
25.7097 16.921 -12.0537 0.892542 0.0506264 -0.448113
25.7024 16.3722 -12.1019 0.880438 0.0139438 -0.473955
25.773 16.6437 -11.9294 0.958758 0.0190056 -0.283589
25.7679 17.3716 -11.8024 0.980831 0.0543877 -0.187118
25.8097 16.638 -11.7379 0.992454 0.0188589 -0.121155
25.8196 16.5716 -11.5743 0.999055 -0.0213207 0.0378793
25.8116 17.0666 -11.485 0.999108 0.0420172 0.00424191
25.7787 15.9381 -11.8663 0.986129 -0.0242754 -0.164199
25.7427 14.9354 -11.6364 0.952538 -0.0961718 0.288828
25.7818 15.9189 -11.4429 0.973734 -0.0561664 0.220651
25.7271 15.7038 -11.363 0.842045 -0.100792 0.529906
25.6686 13.9659 -11.8194 0.995515 -0.0930805 0.0169109
25.6662 14.0848 -12.1375 0.983902 -0.0615669 -0.167772
25.606 13.3899 -12.075 0.996066 -0.0884435 -0.00550412
25.5176 11.9914 -12.6969 0.994234 0.0343841 -0.101569
25.5205 12.6667 -12.6988 0.968571 0.0382184 -0.245786
25.4782 13.2212 -11.6637 0.797691 -0.196682 0.570092
25.1643 13.1999 -11.28 0.755535 -0.206755 0.621627
24.9517 12.1255 -11.4029 0.683859 -0.226954 0.693418
23.8432 6.33721 -10.7936 0.33088 0.138741 0.933418
16.9145 11.6638 -13.8685 -0.178267 -0.0104522 0.983927
16.6985 12.82 -13.9346 -0.129104 0.0448761 0.990615
17.2703 12.6367 -13.9499 0.0893029 0.116177 0.989206
16.2544 13.8288 -14.0666 -0.130742 0.0818098 0.988035
15.9596 14.7645 -14.1719 -0.310519 0.000848128 0.950567
15.6129 14.9637 -14.278 -0.43525 -0.0218163 0.900045
15.0945 14.6029 -14.6258 -0.596215 -0.0516688 0.80116
14.9074 15.662 -14.684 -0.636555 0.00784848 0.771192
14.5579 15.4607 -15.3736 -0.978772 -0.138405 0.151158
14.4617 16.8232 -15.4387 -0.972646 0.000506067 0.232292
14.5524 17.5528 -15.3232 -0.88047 0.0708615 0.468777
14.5849 16.861 -15.1715 -0.82774 0.0643773 0.557407
14.6559 16.1446 -15.004 -0.74888 0.0612782 0.659866
14.7007 17.2572 -15.0853 -0.62081 0.166038 0.766176
14.6966 18.0493 -15.2706 -0.690141 0.2265 0.687316
14.7615 18.3991 -15.3397 -0.417713 0.269187 0.867787
14.9366 18.8859 -15.4365 -0.39374 0.324398 0.860079
14.9318 19.2391 -15.6261 -0.838214 0.35789 0.411475
15.4243 19.7298 -15.5397 -0.168554 0.293299 0.941045
15.456 20.2579 -15.7407 -0.208836 0.359729 0.909386
16.209 20.8215 -15.8716 -0.140741 0.656837 0.740781
15.7526 20.6825 -15.8667 -0.171061 0.417331 0.892509
16.1551 21.0848 -16.5782 -0.00958045 0.822666 -0.568444
16.0974 20.8125 -16.9331 0.0336826 0.609912 -0.791753
15.9383 20.4001 -17.1978 -0.28669 0.503858 -0.814823
16.3132 19.1357 -18.0949 -0.168882 0.640621 -0.749055
16.0821 19.8238 -17.5772 0.00976257 0.516697 -0.856112
16.5692 19.18 -17.9231 0.310544 0.789109 -0.529971
16.9638 19.0805 -17.852 0.496121 0.64135 -0.585264
17.2063 19.0122 -17.7921 0.306075 0.481768 -0.821108
17.2535 20.0913 -17.1156 0.683456 0.453008 -0.572426
17.3568 20.275 -16.8322 0.828244 0.389163 -0.403192
18.0401 18.4175 -16.6354 0.946857 0.321654 0.000457065
18.2285 17.788 -16.4869 0.948557 0.290912 0.124941
18.7491 16.0876 -16.7826 0.955986 0.264465 0.127076
18.4047 17.0833 -16.359 0.925803 0.254641 0.279368
18.6681 16.1976 -16.4786 0.949288 0.261525 0.174521
18.9484 14.8515 -15.7851 0.793749 0.414624 0.445027
19.7328 13.6824 -15.5647 0.44429 0.763593 0.468542
20.4143 13.5817 -15.8265 0.147454 0.870599 0.469378
20.6448 13.3263 -15.2525 0.00263039 0.921568 0.388208
21.0796 13.4046 -15.4 -0.10543 0.863991 0.492346
21.6662 13.708 -15.5652 -0.300191 0.480336 0.824113
21.5325 13.4828 -15.434 -0.0269664 0.586595 0.809431
22.0096 12.948 -15.0012 -0.0464589 0.637504 0.769045
21.442 12.948 -14.9054 0.16917 0.82346 0.541567
21.0504 12.9168 -14.0822 0.315857 0.916349 -0.246046
20.7235 12.9955 -14.2628 0.331375 0.942216 0.0491954
20.3382 13.4617 -13.6066 0.229706 0.6942 -0.682145
20.5744 13.8993 -13.2472 0.115803 0.376076 -0.919324
21.2398 14.9004 -12.933 0.158728 0.0860175 -0.983568
24.2821 17.9656 -12.2946 -0.0716684 0.186176 -0.979899
24.6912 17.7062 -12.3915 -0.0852562 0.215571 -0.972759
25.1501 18.4277 -12.2383 0.277479 0.232732 -0.932116
25.1779 18.0943 -12.2981 0.239501 0.187138 -0.95269
24.9675 18.1122 -12.3153 0.0389292 0.195604 -0.97991
25.2766 17.6721 -12.3482 0.357494 0.143746 -0.922787
25.4757 17.8783 -12.2154 0.58118 0.141234 -0.801425
25.4399 18.3705 -12.1173 0.57033 0.239778 -0.78564
25.2441 18.783 -12.0933 0.346574 0.347195 -0.871403
25.4123 18.8343 -11.9624 0.724091 0.351308 -0.593527
25.619 18.4187 -11.9032 0.868266 0.239023 -0.434722
25.5745 18.0481 -12.0723 0.796056 0.160972 -0.583424
25.5494 18.9244 -11.6171 0.890247 0.411459 -0.195352
25.662 18.5913 -11.6175 0.967959 0.228469 -0.104202
25.7193 18.2002 -11.6269 0.99149 0.128289 0.0221207
25.722 17.9653 -11.8253 0.961501 0.113969 -0.250053
25.6377 17.3267 -12.1136 0.751491 0.0827835 -0.654529
25.6931 17.7182 -11.9846 0.877224 0.0899001 -0.471589
25.7801 17.6386 -11.5234 0.996057 0.0836302 0.0296207
25.7963 16.8824 -11.3912 0.95614 -0.0120253 0.292665
25.7971 16.1093 -11.5415 0.996242 -0.0311489 0.0808184
25.7736 16.355 -11.3466 0.890045 -0.0520876 0.452887
25.5828 16.0371 -11.1123 0.838931 -0.064284 0.540427
25.5129 15.4789 -11.0804 0.839672 -0.124074 0.528731
25.5455 14.3814 -11.3997 0.807448 -0.143353 0.572256
25.6353 14.036 -11.6212 0.958676 -0.117882 0.258928
25.2683 13.8226 -11.1895 0.783228 -0.197008 0.589697
24.9069 13.1801 -11.0029 0.621335 -0.257078 0.740171
24.2217 12.6002 -10.9356 0.1681 -0.273501 0.947069
17.0066 7.39979 -13.1481 -0.445631 0.164888 0.879901
24.4941 5.87404 -11.0291 0.496844 0.018756 0.867637
24.7479 6.44691 -11.2016 0.487408 0.16949 0.856567
18.3602 12.1154 -13.6164 -0.485095 0.550082 0.679774
24.2026 5.45625 -10.8849 0.572483 -0.0219578 0.819623
17.7675 12.1877 -13.8801 0.0570734 0.297907 0.952887
17.5956 11.7261 -13.7914 -0.198561 0.224752 0.953971
17.2028 12.0688 -13.871 0.00456016 0.159478 0.987191
16.9049 13.7407 -14.0297 0.0746299 0.118277 0.990172
17.2745 13.1564 -14.0344 0.190004 0.134454 0.972533
16.4906 14.0547 -14.0606 -0.138033 0.0824836 0.986987
15.0962 16.8115 -14.763 -0.463028 0.196992 0.864175
14.9845 17.6021 -15.0257 -0.18535 0.255 0.94901
15.2521 18.6539 -15.2639 -0.148711 0.264776 0.952774
16.5152 19.4357 -15.2848 -0.136498 0.277869 0.950872
16.1419 20.2474 -15.6144 -0.137295 0.326108 0.93531
16.9798 20.6597 -15.6878 -0.03955 0.525389 0.849943
16.5001 20.9916 -15.9998 -0.0611854 0.86919 0.490677
15.8967 21.0777 -16.4855 -0.172197 0.977744 0.119852
15.8167 21.0167 -16.2037 -0.215671 0.825765 0.521152
16.3707 20.8828 -16.8352 0.144564 0.633691 -0.759958
16.7421 21.0348 -16.5793 0.131833 0.872145 -0.471151
16.6349 20.7041 -16.915 0.181626 0.582128 -0.792552
16.9601 20.8919 -16.6853 0.217649 0.647406 -0.730407
16.1935 20.1569 -17.3657 0.129441 0.531234 -0.837279
16.6446 20.2914 -17.188 0.182475 0.533007 -0.8262
17.1108 20.6109 -16.8451 0.442876 0.541389 -0.714674
17.0854 20.2771 -17.0911 0.268775 0.538469 -0.798631
16.9237 19.9343 -17.3478 0.186526 0.511614 -0.838724
16.3582 19.3506 -17.8134 0.167596 0.524962 -0.834462
17.125 19.6316 -17.4896 0.256096 0.490353 -0.833048
17.4229 20.2885 -16.6125 0.928995 0.318786 -0.187997
17.5881 19.5426 -16.9629 0.914125 0.33012 -0.235364
17.6316 19.6214 -16.5415 0.951582 0.302657 -0.0537664
17.8231 19.0124 -16.7684 0.935282 0.336449 -0.109775
17.8939 18.8073 -16.3976 0.947269 0.308795 0.0856055
17.5746 19.7829 -16.2953 0.945699 0.293764 0.139123
17.7295 18.8115 -15.8996 0.818471 0.26679 0.508851
17.827 18.8469 -16.144 0.882411 0.272257 0.383701
18.0898 17.9992 -16.1439 0.921516 0.281662 0.267348
18.2488 17.3857 -16.0954 0.880587 0.251224 0.401811
18.6437 16.0373 -16.1818 0.936429 0.254184 0.241851
19.0408 15.0199 -16.4385 0.889182 0.399441 0.223164
18.5732 15.7076 -15.7388 0.834926 0.324961 0.444184
19.0194 14.3575 -15.392 0.726394 0.430713 0.535573
19.9887 13.3684 -15.2313 0.280595 0.83337 0.476194
19.6631 13.3769 -15.0892 0.220323 0.756289 0.616023
20.5016 13.1355 -14.7471 0.140698 0.91817 0.370363
20.3055 13.0468 -14.3171 -0.072519 0.995763 0.0565452
20.4379 13.0622 -14.5166 0.163458 0.978156 0.128422
20.2945 13.19 -13.9061 -0.0534049 0.763646 -0.643423
19.9817 13.1464 -13.919 -0.216749 0.697694 -0.68282
20.0472 13.8361 -13.3127 -0.354126 0.595323 -0.721239
20.3911 14.3599 -13.0414 -0.200335 0.412472 -0.888669
21.5583 15.4704 -12.8241 0.152962 0.104803 -0.982659
20.6999 15.7714 -12.6109 -0.452893 0.38871 -0.802367
20.7662 15.0238 -12.9102 -0.20148 0.256832 -0.945221
20.2912 15.5393 -12.391 -0.616425 0.472596 -0.62982
21.3406 15.9142 -12.7815 -0.0248961 0.1872 -0.982006
22.1532 15.6552 -12.7022 0.165237 0.108887 -0.980225
22.3199 15.1358 -12.7366 0.116335 0.117395 -0.986248
22.6845 15.8015 -12.5993 0.13689 0.130536 -0.981948
22.4863 16.6486 -12.521 0.153386 0.131993 -0.979311
21.8789 16.476 -12.6573 0.135291 0.158315 -0.978076
22.2579 17.1206 -12.4722 0.0768505 0.190012 -0.978769
23.1052 17.1107 -12.4069 0.0472637 0.134274 -0.989816
22.6039 17.5348 -12.3763 0.0314284 0.171853 -0.984621
23.1257 18.421 -12.2095 0.0151292 0.191949 -0.981288
23.6112 18.5438 -12.1665 -0.00867445 0.172351 -0.984997
24.2318 18.4195 -12.2033 -0.0429563 0.211633 -0.976405
24.7044 18.3423 -12.2669 -0.0726829 0.206963 -0.975645
24.3431 19.0299 -12.0669 -0.0396326 0.284892 -0.95774
24.8852 18.717 -12.1956 0.0308135 0.275166 -0.960903
24.8934 19.0657 -12.064 0.0722829 0.432333 -0.898812
25.1349 19.0942 -11.9837 0.330694 0.515839 -0.790286
25.3386 19.0818 -11.8611 0.626462 0.538388 -0.563634
25.7044 17.9302 -11.2612 0.949175 0.116463 0.292409
25.7627 17.3068 -11.2887 0.946918 0.0402305 0.318947
25.7039 16.7988 -11.1939 0.851139 -0.0223956 0.524462
25.5348 16.8475 -10.9597 0.810646 -0.0267386 0.584925
25.4138 16.5009 -10.7928 0.803313 -0.0176687 0.595295
25.3168 14.7943 -10.9552 0.779228 -0.139239 0.611078
25.1492 14.5892 -10.7928 0.679623 -0.157846 0.716377
24.9534 14.3368 -10.6765 0.515571 -0.203396 0.832356
24.7243 13.7614 -10.7071 0.264941 -0.258953 0.928843
24.6437 14.4864 -10.49 0.331544 -0.218354 0.917824
24.6342 13.2035 -10.8423 0.223929 -0.271591 0.935999
24.3559 13.6967 -10.6445 0.00307143 -0.247945 0.968769
17.3609 6.94106 -12.8548 -0.24002 0.339351 0.909523
17.6354 6.52074 -12.6744 -0.148309 0.280712 0.948264
23.9229 5.4982 -10.7276 0.358724 0.0506203 0.93207
22.8458 5.66333 -10.609 -0.0655154 0.192132 0.97918
23.6755 6.01749 -10.7086 0.109627 0.195624 0.974532
18.2975 11.8495 -13.5044 -0.697032 0.299266 0.651603
18.6182 12.2669 -13.4125 -0.735265 0.619989 0.27386
18.2987 12.5625 -14.0973 -0.109087 0.649557 0.752446
17.8423 12.5672 -14.0344 0.0741667 0.449471 0.890211
18.0928 12.0873 -13.7851 -0.242494 0.56697 0.787237
18.4211 12.3015 -13.7639 -0.334934 0.737147 0.586885
17.4804 13.6481 -14.2007 0.400355 0.225263 0.888241
16.4122 14.9383 -14.1315 -0.0265102 0.0663939 0.997441
16.3848 16.1765 -14.2827 0.105307 0.169238 0.979933
15.9252 15.6332 -14.2162 -0.284868 0.0985567 0.953487
15.0023 16.3203 -14.6931 -0.512514 0.131753 0.848511
15.3826 15.9422 -14.419 -0.392663 0.236979 0.888626
15.8486 17.6132 -14.8861 -0.150816 0.275377 0.949433
15.7491 17.0982 -14.7405 -0.138325 0.323348 0.936116
16.3013 18.5884 -15.0871 -0.111832 0.259568 0.959228
16.6955 20.0917 -15.4731 -0.0204356 0.337023 0.941275
16.8808 19.7281 -15.3584 0.539541 0.203055 0.817107
16.7839 21.1024 -16.2071 0.0535598 0.995062 0.083568
17.1361 21.0184 -16.434 0.437045 0.899375 0.0107514
17.3418 20.4977 -16.5379 0.945003 0.32204 -0.0570957
17.3167 20.1341 -15.8561 0.806732 0.232753 0.543148
17.4217 19.3184 -15.7024 0.723642 0.223559 0.652965
17.4882 18.6587 -15.5302 0.6882 0.242567 0.68377
17.3466 18.6767 -15.4046 0.60458 0.226885 0.763548
17.9786 17.8633 -15.8089 0.798363 0.251448 0.547166
18.3126 16.7108 -15.802 0.839777 0.249547 0.482184
18.6236 15.8201 -15.9316 0.906867 0.250926 0.338568
18.449 15.4474 -15.425 0.703063 0.351391 0.618245
18.9368 14.2649 -15.243 0.615286 0.384928 0.687935
18.0871 15.5749 -15.1237 0.642903 0.222565 0.732899
17.9644 16.2696 -15.1609 0.674785 0.17903 0.71597
17.5704 16.19 -14.8698 0.558129 0.164688 0.813247
17.7174 15.5118 -14.8313 0.536849 0.157625 0.828823
18.4338 14.8151 -15.1126 0.550124 0.326101 0.768779
19.0912 13.7535 -15.0431 0.380866 0.538185 0.751863
18.6451 12.9308 -14.441 0.193305 0.538606 0.820084
18.3755 13.4067 -14.6 0.344827 0.379164 0.858679
18.9101 13.5389 -14.849 0.352865 0.380265 0.854918
18.4493 14.254 -14.923 0.444746 0.301665 0.843326
19.7609 12.9994 -14.5223 0.0103351 0.88762 0.46046
19.1962 13.0726 -14.5997 0.0216511 0.795064 0.60614
19.1432 12.8655 -14.3456 -0.16862 0.924962 0.340607
19.613 12.947 -14.281 -0.187857 0.96837 -0.164221
19.6828 13.1506 -13.7524 -0.283597 0.804139 -0.52243
19.5089 12.9556 -14.0196 -0.382637 0.866634 -0.320211
19.5422 13.536 -13.252 -0.579126 0.544412 -0.606818
19.2933 13.1191 -13.376 -0.721274 0.537271 -0.437154
19.5969 14.0874 -12.7615 -0.588007 0.543372 -0.599161
20.1124 14.345 -12.9889 -0.446559 0.418521 -0.790838
21.2898 16.613 -12.5145 -0.530816 0.485179 -0.694864
21.5088 17.0844 -12.3173 -0.406201 0.492586 -0.769649
20.4356 15.0684 -12.8013 -0.277424 0.308487 -0.909875
19.9342 14.8481 -12.5378 -0.596708 0.420006 -0.683764
20.0187 15.1464 -12.3924 -0.67128 0.46527 -0.576981
20.9064 16.4362 -12.3153 -0.64047 0.552308 -0.533623
21.8806 17.3941 -12.3281 -0.410514 0.497129 -0.764422
22.1255 17.3765 -12.4104 -0.130791 0.314826 -0.940095
21.6193 16.6079 -12.6272 -0.205223 0.366197 -0.907625
22.4572 17.9537 -12.2567 -0.107701 0.256934 -0.960409
23.5532 18.8502 -12.0999 -0.0370397 0.278613 -0.959689
24.1756 19.3006 -11.9392 0.0241833 0.573955 -0.818529
24.1798 19.4619 -11.7609 0.105284 0.907285 -0.407124
24.5992 19.3384 -11.9057 0.0411775 0.719365 -0.693411
23.9161 19.2538 -11.9777 -0.0526451 0.40126 -0.91445
23.4646 19.0869 -11.9923 -0.183872 0.466467 -0.865217
24.8545 19.3162 -11.9025 0.165178 0.684432 -0.710119
25.0812 19.3026 -11.8306 0.412657 0.770398 -0.486005
24.8037 19.4622 -11.6842 0.178279 0.936273 -0.30267
25.3554 19.1927 -11.6453 0.701597 0.688764 -0.182665
25.472 19.0295 -11.3196 0.835717 0.506683 0.21178
25.2441 19.1842 -11.0916 0.576651 0.638416 0.509802
25.2811 19.2728 -11.4231 0.639836 0.75719 0.131426
25.642 18.5964 -11.2991 0.946922 0.234844 0.219516
25.6376 18.2583 -11.2266 0.940683 0.100204 0.324153
25.5476 18.5852 -11.118 0.72613 0.151993 0.670547
25.5573 18.1029 -11.056 0.775038 0.0834645 0.626378
25.3177 18.0132 -10.7889 0.648063 0.132502 0.749972
25.6749 17.5407 -11.1434 0.808619 0.0318812 0.587468
25.3476 17.2403 -10.7237 0.744114 0.0453304 0.666512
25.0998 16.5934 -10.4697 0.676832 0.00267063 0.736132
25.334 15.9938 -10.7217 0.704322 -0.0497446 0.708135
25.1083 15.6781 -10.5306 0.560231 -0.11295 0.8206
23.9993 13.6541 -10.6895 -0.157123 -0.225943 0.961385
18.9645 12.2642 -12.5113 -0.877832 0.0393699 0.477348
18.5896 11.9478 -13.1743 -0.89276 0.147932 0.425554
18.7785 12.4447 -13.2041 -0.778695 0.625219 0.0522962
19.0784 12.7578 -14.0434 -0.338932 0.900819 0.271386
18.687 12.5647 -13.9598 -0.234828 0.802375 0.54868
18.033 13.0162 -14.2671 0.290298 0.40846 0.865383
17.6775 13.9227 -14.3831 0.483301 0.234007 0.8436
16.7952 14.6975 -14.1734 0.303009 0.194077 0.933016
17.2024 14.9025 -14.3804 0.441798 0.163563 0.882078
16.6048 15.8124 -14.2674 0.321239 0.203925 0.924781
15.7846 16.4887 -14.3739 -0.196452 0.448236 0.872061
15.8848 16.8595 -14.6159 -0.228207 0.489272 0.841745
16.0414 16.3097 -14.3 0.0573948 0.369266 0.92755
16.5201 17.8355 -14.848 -0.111241 0.262209 0.958578
16.863 18.6298 -15.0963 0.20923 0.230459 0.950322
17.1522 20.0117 -15.6086 0.649253 0.20418 0.732653
16.8663 19.2078 -15.2203 0.450573 0.200503 0.869933
17.63 17.5195 -15.2742 0.604555 0.240017 0.759543
18.0311 16.9573 -15.4841 0.730801 0.247761 0.636038
18.2483 16.2106 -15.4588 0.800924 0.237558 0.549625
17.5295 17.0947 -15.0494 0.555586 0.255732 0.791154
17.1056 17.1655 -14.8394 0.457678 0.23568 0.857313
16.9969 15.7838 -14.4444 0.511402 0.157644 0.844758
17.7584 15.0467 -14.7537 0.526224 0.241298 0.815392
17.9192 14.2273 -14.6179 0.471789 0.253216 0.844569
17.0071 16.5994 -14.6364 0.384228 0.24391 0.890436
16.5372 16.7363 -14.5124 0.0736998 0.436223 0.896815
16.5408 17.1192 -14.6456 0.167586 0.263276 0.950053
17.1546 18.0628 -15.0991 0.492007 0.220926 0.842093
16.8669 17.8355 -14.9039 0.42191 0.227222 0.877703
17.0755 20.9308 -15.9416 0.776149 0.47126 0.418936
17.4271 20.1911 -16.1672 0.946693 0.29938 0.118932
17.2548 20.7536 -16.164 0.901184 0.293041 0.319365
19.0876 12.8185 -13.5246 -0.789866 0.597205 -0.139493
19.3952 13.5304 -13.01 -0.836717 0.447522 -0.31564
19.7649 14.4633 -12.6384 -0.86541 0.437195 -0.244799
20.5286 16.0085 -12.2379 -0.764427 0.517465 -0.384553
21.1159 16.9321 -12.0107 -0.694416 0.595548 -0.403867
21.1097 16.0887 -12.6839 -0.320717 0.356071 -0.877698
22.8526 18.535 -12.1439 -0.259011 0.384666 -0.885971
22.5588 18.5664 -11.9423 -0.47043 0.564744 -0.678056
23.7227 19.4098 -11.8631 -0.143876 0.608366 -0.780506
23.4416 19.2179 -11.9023 -0.367273 0.621766 -0.69175
23.8442 19.5489 -11.7364 -0.04061 0.862512 -0.504405
24.4803 19.4913 -11.6726 0.0483841 0.965767 -0.25486
25.0391 19.3894 -11.2405 0.391485 0.896709 0.206525
25.4152 18.895 -11.0747 0.755597 0.348175 0.554839
25.1443 18.9189 -10.8351 0.596931 0.254922 0.760716
25.185 17.4537 -10.6021 0.600928 0.0707808 0.796163
24.8697 16.0537 -10.357 0.271857 -0.0425955 0.961394
24.8774 15.16 -10.4647 0.352479 -0.123638 0.927616
24.2988 14.474 -10.448 -0.0580293 -0.246826 0.967321
24.109 14.6619 -10.4124 -0.169993 -0.173627 0.970029
23.3618 14.5912 -10.5963 -0.179553 -0.227522 0.957076
23.1746 13.9561 -10.7779 -0.135388 -0.192698 0.971873
23.7298 13.0466 -10.8577 -0.100625 -0.214802 0.97146
23.1517 12.9141 -10.9579 -0.0992779 -0.195691 0.975628
24.5761 10.9411 -11.4424 0.30917 -0.216637 0.926003
24.303 11.1493 -11.3149 0.171629 -0.216382 0.961105
24.5661 12.1403 -11.1399 0.266201 -0.247392 0.93163
24.7309 11.6673 -11.3484 0.522894 -0.228521 0.821195
21.2157 5.42056 -10.8895 -0.318161 0.254107 0.913347
20.6322 5.72588 -11.2366 -0.387146 0.276793 0.879491
20.997 6.47509 -11.2935 -0.437084 0.0466733 0.898209
19.4177 6.31305 -12.0913 -0.394298 0.31478 0.86339
19.3418 5.5124 -11.7896 -0.396672 0.359727 0.84454
18.7348 5.74971 -12.1727 -0.392587 0.32336 0.860995
18.9173 12.6125 -12.8601 -0.921809 0.237026 0.306736
19.2488 13.0744 -12.0187 -0.918278 0.154478 0.364558
19.0784 12.749 -12.3285 -0.920691 0.0760668 0.382807
19.0335 12.809 -12.5958 -0.934303 0.344201 0.0927588
19.2616 13.49 -12.2443 -0.945841 0.322808 0.0343483
19.3722 13.7055 -12.5073 -0.914918 0.391912 -0.0965938
19.813 14.8298 -12.1144 -0.909082 0.413494 -0.050928
20.2905 15.7663 -11.9917 -0.861551 0.504291 -0.058486
20.5807 16.2435 -11.9608 -0.863509 0.500273 0.0638711
20.7553 16.4102 -11.6081 -0.816836 0.489418 0.305366
21.2001 17.1321 -11.7717 -0.781124 0.620305 -0.0711845
21.1506 16.9934 -11.5232 -0.753693 0.574553 0.319117
21.8056 17.8352 -11.7734 -0.756797 0.647379 -0.0903216
21.6898 17.565 -12.0268 -0.601537 0.580116 -0.549198
22.3138 18.2254 -12.0314 -0.652109 0.590748 -0.475153
21.9677 17.8095 -12.0749 -0.668129 0.586215 -0.458209
22.4711 18.6191 -11.5524 -0.708949 0.691583 -0.138218
22.7269 18.8483 -11.7017 -0.60535 0.707882 -0.363943
23.0222 19.0106 -11.847 -0.556521 0.744222 -0.369348
23.838 19.5908 -11.5087 -0.0202248 0.998889 0.0425568
24.1294 19.5294 -11.4257 0.0854701 0.99516 -0.0484974
24.6701 19.5015 -11.3616 0.138431 0.987832 0.0708898
25.0981 19.3868 -11.5796 0.391273 0.916316 -0.0852679
24.8059 19.4209 -11.1247 0.179384 0.874454 0.450724
24.9796 19.1947 -10.9243 0.304105 0.65139 0.695134
25.0542 18.2633 -10.654 0.465034 0.173259 0.868173
25.0052 18.8349 -10.7316 0.416163 0.197861 0.887502
24.8876 18.0993 -10.5554 0.333253 0.169446 0.927486
24.8535 17.5718 -10.4568 0.389418 0.114126 0.913963
24.7865 16.7041 -10.3291 0.1878 0.0220571 0.98196
24.496 16.351 -10.2875 0.0131107 -0.0372634 0.999219
24.5266 15.3158 -10.3465 0.0368948 -0.097006 0.9946
23.0652 14.4147 -10.6717 -0.0679748 -0.212549 0.974783
23.3434 14.9734 -10.5168 -0.172722 -0.155666 0.972592
22.7667 12.594 -11.0412 0.00311558 -0.191049 0.981576
22.3073 13.0443 -10.9224 0.0725774 -0.186935 0.979688
21.9493 12.5146 -10.9918 0.0569552 -0.199569 0.978227
19.5136 12.0865 -11.9841 -0.521377 -0.155128 0.839107
17.3423 8.36138 -13.1777 -0.326564 0.243628 0.913237
17.0083 9.27746 -13.5438 -0.354678 0.182045 0.917095
20.6805 11.916 -11.3947 -0.429164 -0.202926 0.880136
20.4651 11.2899 -11.6732 -0.54505 -0.221349 0.808657
21.4591 13.2295 -10.8743 -0.192739 -0.182044 0.964216
21.005 13.4459 -10.9782 -0.292755 -0.0984908 0.951101
21.176 12.1503 -11.1641 -0.265231 -0.205077 0.942123
20.8997 12.6208 -11.1562 -0.339278 -0.194931 0.920267
20.8376 10.9981 -11.5305 -0.333784 -0.18817 0.923678
19.2478 12.5802 -12.0955 -0.605815 -0.189184 0.772786
19.741 12.4774 -11.7909 -0.448202 -0.218223 0.866887
21.6378 12.9078 -10.9072 -0.108969 -0.211044 0.971384
20.5217 6.2062 -11.4734 -0.451676 0.263779 0.852296
20.5015 12.243 -11.4145 -0.48869 -0.181625 0.853343
20.0309 11.7466 -11.8218 -0.474374 -0.245922 0.845276
18.8419 5.01098 -11.853 -0.446245 0.252133 0.858659
18.1294 5.07043 -12.1794 -0.358133 0.143421 0.922589
15.1268 8.98395 -15.9304 -0.975256 0.160502 -0.152037
17.4453 5.16897 -12.4013 -0.403595 0.00648883 0.914915
20.6197 13.1982 -11.169 -0.450493 -0.0972428 0.887468
20.3867 14.2889 -11.3306 -0.430061 0.0911913 0.898182
19.9259 14.1807 -11.5382 -0.454028 0.0723691 0.888043
20.1595 13.5521 -11.3972 -0.443939 -0.0637427 0.893787
19.5036 13.2988 -11.7295 -0.503939 -0.152684 0.850137
20.108 12.6973 -11.546 -0.454789 -0.161669 0.875803
17.0462 9.92098 -13.6186 -0.321322 0.155656 0.93409
19.5091 13.8452 -11.7915 -0.855855 0.229962 0.463282
19.6212 14.3028 -11.8608 -0.895568 0.365859 0.253188
19.9607 14.9511 -11.7794 -0.694043 0.286971 0.660266
20.2401 15.2256 -11.5959 -0.574518 0.199366 0.793841
19.8923 14.9673 -11.9583 -0.89587 0.441603 0.0490238
20.9054 16.7371 -11.7792 -0.809548 0.551207 0.201996
21.3805 17.1419 -11.3591 -0.626998 0.413082 0.660483
22.1532 18.0628 -11.2868 -0.679611 0.531019 0.506111
21.6756 17.4475 -11.2716 -0.635659 0.476756 0.607158
21.4625 17.4325 -11.5745 -0.740413 0.593577 0.315365
22.0955 18.1866 -11.6032 -0.747173 0.646663 -0.153489
22.3424 18.4207 -11.3893 -0.748102 0.625902 0.220431
22.7315 18.8196 -11.3808 -0.657239 0.739477 0.145641
23.5336 19.4862 -11.5227 -0.401504 0.906161 -0.132913
24.2104 19.4479 -11.0968 -0.0403206 0.811926 0.582366
24.2655 19.2946 -10.9358 -0.0905614 0.565931 0.819464
24.5539 19.3475 -10.9854 0.0715275 0.665254 0.743183
23.9207 19.3321 -11.0369 -0.257868 0.618065 0.742631
24.4964 19.086 -10.8068 -0.0601799 0.415425 0.907635
24.7968 18.7682 -10.6676 0.0467573 0.306116 0.950845
24.9312 19.06 -10.8138 0.127503 0.499014 0.857163
23.5615 15.8994 -10.4498 -0.144211 -0.00898199 0.989506
24.2952 16.33 -10.3014 -0.181218 0.0237993 0.983155
23.8671 15.2707 -10.4001 -0.173558 -0.0631934 0.982794
22.657 15.8712 -10.5348 -0.20167 0.00400253 0.979445
22.8012 15.5632 -10.5217 -0.0944872 -0.0419302 0.994643
21.9487 15.5907 -10.7317 -0.332241 0.0399388 0.942349
22.0461 14.8651 -10.6684 -0.158732 -0.0447625 0.986306
19.1656 11.7928 -12.3118 -0.76755 -0.11444 0.63069
21.1795 14.3754 -10.9631 -0.423047 0.103112 0.900222
20.4608 15.7699 -11.5948 -0.800416 0.388395 0.4566
20.9518 16.3718 -11.343 -0.578422 0.283733 0.764803
21.4832 16.5541 -11.0594 -0.465052 0.171097 0.868592
21.6168 17.0968 -11.1425 -0.482768 0.3186 0.815738
22.6641 18.1628 -10.972 -0.409867 0.309951 0.857869
22.6694 18.5231 -11.13 -0.502131 0.389679 0.77202
23.148 19.0674 -11.1985 -0.582684 0.680732 0.443941
23.2928 19.2896 -11.3533 -0.581454 0.790784 0.19124
23.7864 19.489 -11.2493 -0.261042 0.798795 0.542018
24.0532 19.5097 -11.234 0.0388005 0.960657 0.275014
24.5885 18.6826 -10.6631 -0.153991 0.250876 0.955692
23.9712 19.1573 -10.9241 -0.20665 0.321264 0.924167
24.3593 17.8096 -10.4813 -0.155141 0.21972 0.963148
23.8854 17.8045 -10.5962 -0.229674 0.191571 0.954228
23.5772 17.1085 -10.5398 -0.171353 0.182962 0.968072
24.2655 17.0431 -10.3567 -0.189025 0.137963 0.972232
23.6892 16.5753 -10.448 -0.175402 0.0788045 0.981338
24.6128 17.4418 -10.3975 -0.0500152 0.178478 0.982672
22.7351 17.1742 -10.6656 -0.216013 0.223389 0.950492
23.0709 16.5288 -10.5221 -0.131688 0.128892 0.982876
22.5017 16.3065 -10.5883 -0.281668 0.07545 0.956541
20.7025 14.8418 -11.244 -0.466942 0.115699 0.876686
20.907 15.8938 -11.2609 -0.494632 0.165554 0.853189
21.244 15.8475 -11.0772 -0.438977 0.0977393 0.893166
22.1768 16.6059 -10.7315 -0.340168 0.18191 0.922602
22.0669 17.1065 -10.9022 -0.383874 0.266715 0.884027
23.6643 18.9436 -10.9319 -0.206052 0.329211 0.9215
23.7103 18.5057 -10.7983 -0.198518 0.243277 0.949424
23.0818 18.1615 -10.8434 -0.186524 0.219157 0.957695
23.497 17.5859 -10.6638 -0.217893 0.174378 0.960268
21.5093 15.1701 -10.8964 -0.407131 0.0746387 0.910315
21.2605 14.0215 -10.9001 -0.31564 0.0199511 0.948669
23.2506 18.85 -10.9843 -0.219452 0.261823 0.939835
21.9332 14.2538 -10.7112 -0.0649071 -0.118337 0.99085
22.7282 14.2185 -10.7188 0.004509 -0.184293 0.982861
23.3621 19.3573 -11.6899 -0.618766 0.762941 -0.187217
17.9009 4.41566 -12.1602 -0.426741 0.0963773 0.899224
17.3063 4.76921 -12.4529 -0.529341 -0.0737031 0.845202
16.9983 4.45742 -12.6812 -0.609914 -0.222371 0.760629
16.8267 10.9072 -13.8485 -0.266332 0.18169 0.946602
17.6224 10.9486 -13.6835 -0.30005 0.205114 0.931611
16.4237 4.76259 -13.0754 -0.622666 -0.166018 0.764673
16.5169 5.1487 -12.9238 -0.627968 -0.128527 0.767553
25.3564 10.3475 -14.7037 0.945269 0.326019 -0.0133657
25.3646 10.3767 -14.9664 0.944994 0.264143 0.19291
15.9677 5.03737 -13.4076 -0.677627 -0.158232 0.718182
15.518 5.48112 -13.8419 -0.792533 -0.182452 0.581896
15.3917 9.76177 -16.1671 -0.865552 0.219669 -0.450072
23.9207 10.4394 -11.4323 0.0144636 -0.158864 0.987195
15.0802 6.27557 -14.3949 -0.82338 -0.0608802 0.564215
15.4487 6.66773 -13.802 -0.834249 0.0305243 0.550542
15.1205 7.04878 -14.3629 -0.885929 0.0226887 0.463265
21.5916 13.0886 -15.0902 0.0959164 0.695435 0.712158
21.1736 12.9217 -14.6923 0.367822 0.790826 0.489184
25.2497 10.6896 -14.637 0.939324 0.322192 -0.117738
25.5436 9.8979 -14.4892 0.943027 0.306041 -0.130533
18.4823 11.5384 -13.216 -0.681024 0.160909 0.714363
25.1914 12.2381 -17.1497 0.839925 -0.0181771 -0.542397
25.4989 10.6434 -13.6576 0.932568 0.2231 -0.283801
25.325 10.6466 -14.1928 0.923115 0.288545 -0.254166
25.5697 13.3551 -12.3968 0.978924 -0.0178869 -0.203439
22.352 16.1887 -16.3324 -0.755486 0.329009 0.566564
22.6668 16.8536 -16.2777 -0.838138 0.370744 0.400093
22.5505 16.749 -16.6102 -0.813577 0.572191 -0.103391
23.0086 17.5263 -16.1355 -0.872549 0.446131 0.199062
23.2169 17.7655 -15.8833 -0.838963 0.364965 0.40366
23.3624 18.0884 -15.9838 -0.838144 0.537095 0.095103
23.8235 18.6747 -15.6891 -0.799469 0.582871 0.145293
24.2391 19.1981 -15.564 -0.720096 0.686281 -0.102367
24.174 19.1028 -15.4464 -0.818619 0.488964 0.301293
24.2451 19.1035 -15.2817 -0.82682 0.363462 0.429261
24.4918 19.4394 -15.1193 -0.756957 0.618329 0.211389
24.6676 19.6064 -15.5353 -0.575896 0.794364 -0.193208
24.5653 19.3429 -15.9759 -0.465309 0.743028 -0.481038
25.5909 19.6225 -15.8934 0.413066 0.557105 -0.720424
25.7354 19.3198 -15.9566 0.519492 0.32857 -0.788778
25.8178 19.6287 -15.6734 0.601928 0.66631 -0.44013
25.8633 19.6475 -15.5077 0.6687 0.739155 -0.0805631
25.7314 19.7836 -15.1596 0.59358 0.800476 0.0830694
25.4201 19.9119 -15.0834 0.094528 0.963117 0.251934
25.5362 19.8898 -15.2748 0.316444 0.940466 -0.124047
24.9865 19.8174 -15.0114 -0.394652 0.867466 0.302908
25.2045 19.8138 -14.8983 -0.132477 0.78575 0.604191
25.5083 19.7306 -14.8085 0.205818 0.683494 0.70034
24.9713 19.5611 -14.7429 -0.35071 0.452666 0.819815
24.4474 19.1634 -14.9325 -0.744098 0.336128 0.577352
24.0682 18.7097 -15.2839 -0.743986 0.352699 0.567529
24.2297 18.8412 -15.149 -0.789938 0.185415 0.584482
23.6851 18.3123 -15.491 -0.736155 0.404234 0.542835
23.5439 18.0039 -15.5124 -0.728098 0.199568 0.655779
23.2775 17.3104 -15.6817 -0.655016 0.0821468 0.751137
23.1217 17.4669 -15.8702 -0.766088 0.20592 0.608857
22.8038 16.8795 -16.0701 -0.764141 0.224568 0.604696
22.6117 16.4967 -16.1552 -0.729614 0.240811 0.640057
22.8775 17.2466 -16.1582 -0.870612 0.373559 0.320138
23.5217 18.2651 -15.7199 -0.823115 0.495268 0.277832
24.7262 19.5331 -14.8989 -0.593469 0.546958 0.59045
24.6843 19.6457 -15.1547 -0.577493 0.813095 0.0733409
24.343 19.1737 -15.9779 -0.624886 0.701355 -0.342956
25.1313 19.7427 -15.8559 -0.353662 0.814932 -0.459139
25.3544 19.8075 -15.7917 0.0628311 0.85126 -0.520969
25.5323 19.8152 -15.6715 0.32218 0.905194 -0.277171
25.1588 19.8947 -15.3854 -0.270889 0.953685 -0.130783
25.2728 19.6365 -14.7168 0.000358507 0.488567 0.872526
15.0689 8.12502 -15.6166 -0.942966 0.31999 0.0917682
15.1078 8.25701 -15.3623 -0.996856 -0.0761937 -0.0217396
25.5521 14.0199 -12.4795 0.942433 -0.0139139 -0.334105
15.0666 12.9253 -15.6207 -0.983362 -0.0665868 -0.169011
15.6861 9.58851 -16.6207 -0.726239 0.31325 -0.611925
15.1466 7.80468 -14.7349 -0.934382 0.110819 0.338598
15.567 12.4242 -14.3494 -0.59371 -0.0749065 0.801185
15.2999 9.77961 -15.1296 -0.956383 0.0476613 0.2882
16.1865 9.74813 -17.0895 -0.75178 0.35344 -0.556693
15.8986 10.2804 -16.6311 -0.683089 0.217411 -0.697224
25.4271 11.4242 -13.387 0.936909 0.168376 -0.30635
23.4622 12.8886 -14.6285 0.164563 0.908376 0.384412
24.7801 15.2259 -15.1881 0.102723 -0.170975 0.979906
16.4925 13.1366 -18.5307 -0.963361 -0.0937197 -0.251301
15.2567 10.1515 -15.7156 -0.97318 0.0602601 -0.222014
25.0138 11.6892 -14.1081 0.838817 0.337362 -0.427286
25.4466 15.9243 -15.1205 0.26756 -0.293646 0.917706
26.2352 16.2003 -15.7427 0.980348 -0.171176 0.0980635
25.3191 16.2884 -15.0002 0.109951 -0.285973 0.951909
19.2197 12.2144 -12.1943 -0.734662 -0.0947817 0.67178
25.4923 11.4028 -12.3229 0.984244 0.0135577 0.176293
22.9804 11.3899 -11.2753 -0.0326909 -0.201724 0.978897
23.9701 11.4457 -11.22 0.0133649 -0.236487 0.971543
22.4872 11.8886 -18.0693 -0.0406015 0.155846 -0.986947
21.9113 11.9803 -18.0414 0.0103683 0.159333 -0.987171
23.4664 12.0846 -11.0957 -0.0697033 -0.215766 0.973954
17.9569 11.2414 -13.5788 -0.351536 0.125129 0.927774
15.0515 12.1432 -15.2315 -0.998768 -0.0493572 -0.00515871
15.0895 11.5437 -15.4098 -0.996197 -0.0592604 -0.0638804
25.5606 10.6279 -16.4799 0.94938 0.106806 -0.295416
25.4022 10.8698 -16.8401 0.915059 0.0583146 -0.399082
25.5523 10.6794 -15.8932 0.95205 0.176842 0.249657
19.5056 11.4355 -12.186 -0.453818 -0.292962 0.84156
15.3266 12.3226 -16.1482 -0.816646 -0.0386949 -0.57584
15.4594 12.5845 -16.3041 -0.778412 -0.00241713 -0.627749
15.1639 12.4445 -15.9102 -0.893827 -0.0399383 -0.446629
20.0149 11.0028 -12.0929 -0.520926 -0.2334 0.821073
16.2425 13.017 -16.8537 -0.683153 0.0759217 -0.726318
21.7866 11.3906 -18.1636 0.289949 0.299202 -0.90907
16.4695 12.7536 -17.2771 -0.985192 -0.0372949 -0.167352
16.3404 12.3062 -17.0222 -0.642937 -0.0166063 -0.765739
24.925 11.5897 -17.5256 0.67416 0.090312 -0.733043
24.6413 11.9055 -17.7009 0.515107 0.0969792 -0.851622
16.1014 11.2572 -14.104 -0.429342 0.0136725 0.903038
19.0853 11.3557 -12.5373 -0.732624 -0.158933 0.661818
18.7657 11.5808 -12.8622 -0.757331 -0.0602022 0.65025
25.7423 9.80396 -16.3807 0.970471 0.207881 -0.122356
25.5962 10.6164 -16.305 0.984893 0.141774 -0.0994285
16.437 12.7702 -18.2005 -0.99312 -0.0278272 -0.113749
17.4999 12.3298 -19.4563 -0.246862 0.111018 -0.96267
16.5162 11.9595 -18.6966 -0.971616 -0.0271112 -0.235005
16.5533 12.5076 -18.7294 -0.952257 0.0270738 -0.304095
17.3374 10.7842 -19.5321 -0.334928 0.0884196 -0.938086
17.5301 11.7735 -19.5262 -0.229729 0.0737741 -0.970455
25.1535 11.6268 -17.2597 0.835561 0.0445033 -0.547592
25.0425 11.8686 -17.3776 0.730078 0.061586 -0.680583
25.3546 11.3075 -12.0207 0.887409 -0.0309372 0.459943
16.6872 12.6896 -18.9623 -0.752281 0.0781533 -0.654191
25.6366 10.4519 -13.1568 0.981205 0.169707 -0.0918529
25.6503 10.1404 -13.5549 0.964955 0.21567 -0.149493
25.5875 10.5463 -13.3856 0.962582 0.182948 -0.199915
25.6159 10.5309 -16.1464 0.983161 0.177959 0.0415408
15.4575 11.5637 -14.5346 -0.701326 -0.0791399 0.708434
16.6364 11.6392 -18.9511 -0.924221 -0.0392651 -0.379833
15.251 11.5487 -14.8279 -0.907178 -0.109178 0.406334
15.1614 12.384 -14.8142 -0.948787 -0.0582591 0.310499
23.6564 11.9736 -17.9854 0.12743 0.125836 -0.983833
15.8117 10.9261 -14.2896 -0.58364 -0.0545693 0.810177
24.0486 11.6964 -17.9589 0.222947 0.0995719 -0.969732
22.0631 11.4901 -18.0985 -0.0162311 0.245651 -0.969222
22.3681 10.7957 -18.3583 -0.0386244 0.294428 -0.954893
22.0129 10.7421 -18.3704 0.131333 0.323708 -0.936998
25.5546 11.1459 -12.9054 0.992825 0.105214 -0.0568174
18.0086 11.5465 -13.6069 -0.381492 0.199636 0.902557
21.3642 11.5609 -18.2936 0.411684 0.293059 -0.862921
24.3391 12.0249 -17.8332 0.354081 0.0944084 -0.930437
24.448 11.5746 -17.8388 0.378384 0.0842374 -0.921808
19.4038 11.0216 -19.4004 0.31498 0.29793 -0.901125
20.2634 11.4585 -18.9072 0.361025 0.324231 -0.874377
18.0142 11.6628 -19.5563 -0.00849003 0.113389 -0.993514
21.0231 11.6449 -18.4351 0.453417 0.352214 -0.818754
21.3571 11.0763 -18.5113 0.467901 0.366821 -0.804059
22.923 11.3555 -18.1629 0.131413 0.195779 -0.971803
24.7773 11.3653 -17.6866 0.561999 0.0854228 -0.822715
16.4495 11.0692 -13.9706 -0.356916 0.0851434 0.930248
18.6579 11.7059 -19.4256 0.244938 0.17329 -0.953927
19.1077 11.6071 -19.3109 0.295811 0.244379 -0.923458
18.7822 11.1504 -19.5309 0.2321 0.263535 -0.936311
21.6422 10.8219 -18.4504 0.407349 0.32247 -0.854447
17.8731 11.1628 -19.6193 0.018182 0.175003 -0.9844
18.6747 12.0359 -19.383 0.316134 0.136663 -0.93882
18.4214 11.0643 -13.2352 -0.686342 0.0346481 0.726454
18.7868 10.6911 -12.8924 -0.645882 -0.0663451 0.760549
25.5788 9.718 -14.872 0.945056 0.326539 -0.0155046
25.6128 9.68316 -15.1367 0.936818 0.314126 0.153939
25.4109 10.3343 -15.1555 0.937767 0.250823 0.240169
25.3726 10.7207 -15.3404 0.931401 0.193236 0.308467
20.9959 10.81 -18.8505 0.453056 0.344142 -0.822379
18.5423 9.35692 -12.9351 -0.360054 0.0428609 0.931946
18.1533 8.34373 -12.9019 -0.299286 0.224951 0.927267
19 8.25398 -12.5959 -0.317317 0.198985 0.927208
19.1829 8.81797 -12.6414 -0.293172 0.119828 0.948521
19.4931 9.32577 -12.6182 -0.280001 -0.00536691 0.959985
25.6659 10.3068 -12.9445 0.98865 0.127121 0.0800713
25.5795 10.1871 -13.8413 0.941182 0.271561 -0.201076
22.6163 11.4475 -18.1631 -0.0222657 0.251782 -0.967528
22.7882 10.7964 -18.3675 0.0954664 0.258982 -0.961153
21.8846 10.1658 -18.5853 0.263339 0.322416 -0.909231
19.9233 10.5807 -19.3621 0.326086 0.347486 -0.879159
16.6715 8.73593 -13.5535 -0.380841 0.229723 0.895649
15.9441 8.39455 -13.8596 -0.504549 0.172029 0.846071
16.7283 7.82007 -13.3715 -0.517713 0.113073 0.848049
19.9109 8.94331 -12.4428 -0.317586 0.235991 0.918394
24.6049 10.1462 -11.6184 0.268441 -0.131927 0.954219
24.4387 9.69952 -11.5932 0.35837 -0.000215701 0.93358
25.3944 10.6931 -12.132 0.89059 -0.00239306 0.454801
25.5504 10.9571 -12.5629 0.963598 0.0383446 0.26459
25.6889 9.97434 -12.783 0.964856 0.0822927 0.249561
25.6359 9.77939 -12.577 0.912931 0.0379911 0.406342
25.774 9.72134 -13.2243 0.986393 0.161347 -0.0315538
25.801 9.11694 -14.4479 0.951091 0.305766 -0.0439639
25.7391 9.33775 -14.2723 0.948047 0.308179 -0.0789439
25.7952 9.28334 -13.8679 0.966285 0.230558 -0.114616
25.9227 8.7935 -13.6294 0.970464 0.241057 0.00958268
25.964 8.66772 -14.2665 0.951302 0.308223 0.00477033
26.0143 8.55446 -14.5969 0.938704 0.344162 0.0196621
26.0759 8.29682 -14.3744 0.975047 0.215776 0.0521996
25.7392 9.61863 -15.5982 0.936981 0.286525 0.199925
25.8948 9.12635 -15.6809 0.944784 0.299204 0.133644
25.8255 9.43646 -15.8037 0.962261 0.259507 0.0819184
25.7473 9.77536 -15.8907 0.962554 0.228853 0.145311
25.542 10.3956 -16.6259 0.912788 0.137202 -0.3847
22.2995 10.3863 -18.4519 0.0712072 0.264394 -0.961782
20.8287 10.4533 -19.0699 0.362185 0.335329 -0.869699
21.1925 10.2565 -18.9411 0.491298 0.426037 -0.759683
19.3519 10.2974 -19.6853 0.281403 0.435303 -0.855175
19.2168 10.5815 -19.6001 0.252654 0.327903 -0.910299
16.3183 9.76398 -13.9148 -0.441822 0.0939155 0.892173
16.0543 10.1378 -14.1053 -0.621253 0.0487502 0.782092
16.082 7.74387 -13.8008 -0.54687 -0.0183223 0.837017
16.6362 6.5863 -12.9412 -0.381263 0.354115 0.853956
16.2179 6.27863 -13.0718 -0.45964 0.179959 0.869681
18.285 6.67905 -12.644 -0.192495 0.251695 0.94847
18.9154 6.61253 -12.4088 -0.378947 0.127242 0.916629
19.0405 6.96926 -12.3564 -0.46172 0.0501325 0.885608
19.6147 7.3726 -11.9334 -0.350981 -0.439458 0.826855
19.5273 7.49001 -11.9786 -0.662527 0.33876 0.668056
19.2276 7.56291 -12.3764 -0.732003 0.247718 0.634671
19.225 7.19465 -12.2185 -0.649813 -0.106469 0.7526
19.8828 7.06644 -11.9996 -0.355083 -0.0524388 0.933363
19.7455 6.74058 -11.9584 -0.545035 0.197607 0.814794
20.3349 7.21965 -11.6754 -0.435659 0.032153 0.899538
19.9946 7.30404 -11.8922 -0.415823 -0.259383 0.871672
19.9746 7.7733 -11.9082 -0.487952 0.34704 0.800916
20.4738 8.79752 -11.9062 -0.554156 0.219195 0.803034
21.3007 8.53826 -11.4849 -0.20659 0.168057 0.963887
21.1732 8.97884 -11.5761 -0.287652 0.0495563 0.956452
20.7643 8.85821 -11.7406 -0.535163 0.0266449 0.844328
20.8453 10.2788 -11.6532 -0.405316 -0.149326 0.901899
21.5958 11.8777 -11.1417 -0.185966 -0.193242 0.963366
21.7322 10.5668 -11.3866 -0.0810336 -0.191909 0.978062
23.1443 10.1376 -11.4924 -0.0246751 -0.0559632 0.998128
22.5089 10.1822 -11.4788 0.0355651 -0.0991568 0.994436
23.8261 9.71524 -11.4936 0.0111958 0.0596908 0.998154
24.09 9.24822 -11.5081 0.0987073 0.00466401 0.995106
24.6673 8.50279 -11.5642 0.365272 0.153283 0.918194
25.3562 9.40649 -12.0949 0.598174 0.00481582 0.801352
25.4455 9.87054 -12.2083 0.832338 0.0195239 0.553924
25.5885 9.25547 -12.4339 0.901726 0.0221861 0.431738
25.838 9.12548 -13.3607 0.985029 0.124014 0.119739
25.9662 8.52479 -13.5009 0.973844 0.219187 0.0598738
25.9866 8.01801 -13.1721 0.975409 0.0528821 0.213964
26.0524 8.15576 -13.7265 0.997561 -0.0184816 0.0673135
26.0274 8.52202 -15.2343 0.966264 0.253874 0.0433762
26.071 8.2253 -15.377 0.993436 0.114153 -0.00741057
26.0404 8.66908 -15.876 0.979752 0.197637 0.0320256
26.0401 8.3344 -15.6367 0.997352 0.0638548 -0.0348111
25.6697 9.89881 -16.5506 0.898624 0.202016 -0.389442
25.8599 9.19215 -16.5412 0.911568 0.208573 -0.354318
25.4579 9.74347 -17.0884 0.875896 0.20905 -0.434862
25.245 11.2141 -17.1296 0.870956 0.0544663 -0.488333
25.1407 10.5169 -17.4021 0.798071 0.108018 -0.592802
25.0194 11.174 -17.4835 0.763302 0.069209 -0.642324
25.3064 10.3841 -17.1393 0.888122 0.129373 -0.441024
23.8057 11.3349 -18.0278 0.159736 0.0892034 -0.983121
24.1136 10.9419 -18.0047 0.280821 0.162087 -0.945974
23.4318 10.9592 -18.1742 0.212176 0.26573 -0.940409
23.1445 10.5979 -18.3535 0.224467 0.237329 -0.94514
22.8457 10.3319 -18.4404 0.0815797 0.214016 -0.973418
23.166 10.0567 -18.4675 0.173594 0.288537 -0.9416
22.7119 9.90006 -18.5702 0.0804678 0.304254 -0.949186
23.4476 8.03648 -19.2938 0.239331 0.55628 -0.795785
23.0355 8.2125 -19.2962 0.337578 0.612132 -0.715077
23.9331 7.83457 -19.2564 0.356326 0.464439 -0.810758
23.661 7.43013 -19.5754 0.41807 0.410652 -0.810298
23.3899 7.71977 -19.5408 0.325941 0.529744 -0.783029
22.3032 8.8649 -19.0855 0.491784 0.625547 -0.605672
22.684 8.65089 -19.0825 0.379056 0.639067 -0.669261
22.4263 8.97085 -18.9365 0.274415 0.426101 -0.862052
21.92 9.62176 -18.7988 0.390742 0.422462 -0.81783
22.1879 9.67028 -18.6916 0.145526 0.33543 -0.930757
21.6907 9.71863 -18.8991 0.553807 0.476423 -0.682876
21.5254 10.2302 -18.7198 0.47669 0.338512 -0.811281
20.8409 9.94496 -19.3244 0.369822 0.462544 -0.805782
20.1599 9.72648 -19.7231 0.328952 0.469293 -0.819484
20.7026 10.3106 -19.1842 0.354591 0.432382 -0.829043
19.777 9.67758 -19.8939 0.277571 0.531221 -0.800474
20.0081 10.2699 -19.4788 0.309114 0.451716 -0.8369
19.2769 9.89081 -19.9426 0.20992 0.446162 -0.869984
18.7479 10.2585 -19.8422 0.07682 0.374992 -0.92384
18.4899 10.7562 -19.6976 0.127325 0.293779 -0.947355
15.5255 10.1326 -14.619 -0.899879 -0.00931297 0.43604
15.651 9.5947 -14.42 -0.844919 0.0702045 0.530268
16.01 8.12292 -13.7967 -0.62264 -0.0433933 0.781305
15.5063 7.0084 -13.826 -0.581855 0.365269 0.726652
16.0977 7.28058 -13.5619 -0.504173 0.396351 0.767278
16.0202 5.91611 -13.1884 -0.615561 -0.0505375 0.786467
15.7123 5.69273 -13.5693 -0.704826 -0.124443 0.69838
16.8808 5.8467 -12.6674 -0.517998 -0.0256969 0.854996
17.5953 5.51286 -12.4166 -0.220122 0.246174 0.943899
17.8222 6.02782 -12.5139 -0.186295 0.300744 0.935333
20.1045 6.60134 -11.7207 -0.498881 0.0446416 0.86552
19.4409 7.06913 -12.1585 -0.369154 0.0784796 0.926049
20.7802 6.8784 -11.3883 -0.401473 0.0262067 0.915496
21.4723 6.93205 -11.1282 -0.303317 0.0718321 0.950178
21.9581 7.2906 -11.0293 -0.234366 0.183115 0.954747
21.297 7.98744 -11.3514 -0.318098 0.224691 0.921047
20.8813 7.6936 -11.4336 -0.418736 0.197681 0.886331
22.0547 8.43424 -11.3057 -0.149949 0.253276 0.955702
21.517 9.48222 -11.4981 -0.135174 0.0502278 0.989548
21.0302 9.45169 -11.6295 -0.319801 -0.0434375 0.946489
21.6449 10.088 -11.4591 -0.122638 -0.134975 0.98323
22.7074 11.0341 -11.3393 0.045815 -0.17951 0.982689
22.3028 11.399 -11.2408 0.0355983 -0.188345 0.981457
22.2112 9.52136 -11.471 0.0472669 -0.0156395 0.99876
23.7448 8.74046 -11.3838 0.0948689 0.252653 0.962895
25.0736 9.14106 -11.8964 0.578045 -0.00158941 0.816003
25.8474 8.49095 -12.9035 0.955439 0.124348 0.267719
26.1853 7.76377 -14.6437 0.977219 0.195096 0.0835476
26.1926 7.80984 -15.0599 0.98309 0.182706 -0.0123642
26.1093 8.11818 -14.9461 0.964547 0.263332 0.0174939
26.0161 8.69645 -16.2403 0.987002 0.0631445 -0.147781
25.8841 9.30632 -16.2764 0.969569 0.242887 -0.0306906
25.9357 8.77512 -16.5269 0.921264 0.0102965 -0.388802
25.6596 8.90305 -17.0891 0.896264 0.131343 -0.423627
24.8808 10.5966 -17.6736 0.645657 0.105288 -0.756334
24.5823 10.7764 -17.8453 0.446914 0.14234 -0.88318
23.9949 10.3203 -18.1867 0.307088 0.223814 -0.924989
25.0137 9.73461 -17.7091 0.709913 0.184688 -0.679642
25.2953 9.71493 -17.3792 0.796025 0.203597 -0.569993
24.7938 9.79031 -17.8792 0.575531 0.160533 -0.801869
23.4987 9.35571 -18.6405 0.233316 0.312289 -0.92089
23.6981 9.82711 -18.4042 0.283178 0.285712 -0.915521
24.0358 8.86068 -18.6494 0.328677 0.314226 -0.890636
24.5004 8.89172 -18.4142 0.491979 0.303494 -0.815995
24.0873 9.34432 -18.4377 0.380192 0.326962 -0.865188
23.8046 8.23556 -19.0599 0.254935 0.508858 -0.822236
23.9648 8.65223 -18.7502 0.32889 0.453153 -0.828543
24.387 8.40942 -18.7036 0.427343 0.463228 -0.776401
22.9553 7.92945 -19.6301 0.506365 0.622308 -0.596931
21.6358 9.13096 -19.4507 0.509211 0.644519 -0.570351
