10.2958 4.82566 1.89943 -0.741322 -0.339048 -0.579214
10.7658 4.73212 1.4724 -0.58425 -0.347267 -0.733525
10.1973 4.72674 2.17493 -0.86194 -0.302996 -0.406514
9.95766 6.1858 1.81082 -0.92067 -0.129455 -0.36825
9.97065 5.84451 1.98352 -0.977451 -0.168707 -0.126993
9.89456 6.38231 2.36116 -0.997718 -0.0621774 -0.0263336
9.93758 6.0952 2.51072 -0.992862 -0.111497 0.042356
9.8785 6.9089 2.24574 -0.991361 0.0211342 0.129451
9.9456 7.44858 1.67277 -0.987176 -0.00363825 -0.159592
10.0307 6.99605 1.50283 -0.920849 -0.0642622 -0.384587
9.91363 6.90918 1.85598 -0.966596 -0.0302658 -0.254511
9.89 7.53011 2.18389 -0.999472 0.0317959 -0.00671223
11.5145 8.48046 0.471434 0.0653714 -0.106494 -0.992162
11.539 6.86156 0.700443 -0.0535551 -0.145204 -0.987951
11.4977 7.57019 0.589709 0.11875 -0.1537 -0.980956
12.0556 6.34414 0.82666 0.170617 -0.0915214 -0.981078
11.9866 5.2879 0.94997 0.030182 -0.229479 -0.972845
11.7345 4.82452 1.04994 -0.121739 -0.343321 -0.931295
10.8145 5.5467 1.13201 -0.416885 -0.26951 -0.868085
11.2689 4.94176 1.11873 -0.338457 -0.385653 -0.858323
11.6997 4.30059 1.28274 -0.243337 -0.352114 -0.903771
11.1818 4.36454 1.43193 -0.345251 -0.290783 -0.892327
10.3715 4.3827 2.06443 -0.867116 -0.219288 -0.447238
10.0597 5.37963 2.00268 -0.96851 -0.214801 -0.125893
10.046 5.28218 2.58427 -0.988587 -0.149842 0.0156157
9.96431 5.80604 2.3958 -0.989635 -0.140044 0.0317919
10.0138 5.57246 2.81979 -0.990339 -0.0912379 0.10442
10.0043 6.16472 2.90121 -0.965517 -0.00442761 0.260302
9.97147 7.09698 2.70247 -0.957325 0.0942173 0.273223
9.97961 6.75168 2.79493 -0.963153 0.0389619 0.266116
10.0703 7.14246 2.93897 -0.910093 0.163471 0.380799
10.113 7.80355 2.73672 -0.829403 0.222345 0.512498
10.3504 6.94401 3.42036 -0.756838 0.225734 0.613384
9.97504 8.24468 2.16527 -0.979474 0.13634 0.148465
9.9626 7.79995 2.37707 -0.925366 0.165723 0.34093
10.1537 8.75885 2.42044 -0.901138 0.165925 0.400524
10.46 8.69729 2.89861 -0.769639 0.183233 0.611621
10.2481 8.36725 2.72558 -0.805108 0.212857 0.553618
10.5522 8.21027 3.14522 -0.742673 0.211722 0.635304
10.7717 8.97741 3.11201 -0.648681 0.229821 0.725531
10.337 9.14748 2.61145 -0.832285 0.193962 0.519307
10.2715 9.64929 2.28896 -0.903307 0.175042 0.39166
10.6957 10.1209 2.67151 -0.711688 0.20863 0.670801
10.5636 9.56714 2.7261 -0.679046 0.235982 0.695133
10.4427 10.0049 2.43106 -0.790603 0.196428 0.579968
10.3151 10.2967 2.1033 -0.861062 0.178521 0.476133
10.1968 10.0643 1.8941 -0.944255 0.151002 0.292542
10.1192 9.14512 2.13246 -0.969944 0.140745 0.198491
10.0194 8.73238 1.88793 -0.984702 0.141934 0.101074
10.2676 8.74537 0.988238 -0.868501 -0.00220463 -0.495683
10.3791 9.17498 0.812146 -0.656401 -0.0659379 -0.751525
10.3942 8.52528 0.8607 -0.757696 -0.0503468 -0.650662
10.1435 8.16764 1.19244 -0.809654 -0.0186442 -0.586611
10.735 9.14843 0.564834 -0.464166 -0.0991788 -0.880178
13.7582 14.3588 -0.270383 0.362528 -0.0384478 -0.931179
14.6243 13.431 0.30034 0.711615 0.0822674 -0.697737
14.7779 13.5892 0.522321 0.825047 0.183623 -0.534397
13.4121 16.5138 1.62571 0.453123 0.565109 0.689443
13.4812 16.584 1.51068 0.562034 0.560703 0.608054
10.714 9.764 0.504411 -0.533765 -0.0975739 -0.839985
10.8316 10.3481 0.364851 -0.433176 -0.143306 -0.889844
10.8341 13.4838 1.87785 -0.6258 0.203071 0.753085
10.9313 13.0707 2.07247 -0.576198 0.233787 0.78316
11.0293 13.5749 1.99706 -0.545408 0.199891 0.813987
12.9555 17.7099 0.933462 0.498352 0.608702 0.617356
10.6996 11.4805 0.240249 -0.43669 -0.181265 -0.881161
13.9593 14.0607 -0.157109 0.414783 -0.0724475 -0.907032
10.2889 11.5087 0.668255 -0.863998 0.0196447 -0.503112
12.7633 18.6664 0.0919986 0.667111 0.585265 0.460899
12.8401 18.6403 -0.0330569 0.853943 0.495741 0.158186
10.1966 10.1165 1.17282 -0.970882 -0.0524656 -0.233741
10.0832 9.2813 1.71548 -0.991445 0.118116 0.0555534
9.97227 8.36064 1.71209 -0.983638 0.103842 -0.14722
9.98713 8.06604 1.53265 -0.928671 0.0438689 -0.368301
10.1118 8.77262 1.30216 -0.917695 0.0276778 -0.396321
10.1346 9.17021 1.31133 -0.973249 0.078645 -0.215872
10.1498 9.80932 1.49209 -0.995109 0.0799574 -0.058015
10.9186 9.69034 2.99369 -0.598798 0.244388 0.762703
11.68 10.0258 3.38539 -0.537442 0.259644 0.802335
12.9841 11.3201 3.83949 -0.496951 0.260594 0.827726
12.3612 11.811 3.26662 -0.530536 0.271732 0.802928
14.0496 13.5408 -0.0730915 0.393131 -0.0751279 -0.916408
13.3707 11.6844 3.90858 -0.358923 0.323921 0.875357
13.5976 11.7344 3.96856 -0.255942 0.366623 0.894472
13.4678 12.432 3.63994 -0.25735 0.362889 0.895591
13.6533 12.2033 3.79028 -0.20804 0.405872 0.889937
13.7408 12.8379 3.54534 -0.0169473 0.393529 0.919156
14.1044 12.7227 3.55023 0.163485 0.413114 0.895885
13.8067 12.3644 3.73012 -0.0927144 0.430404 0.897862
13.7568 12.0034 3.90294 -0.124811 0.399313 0.908279
14.0768 11.9708 3.94606 0.0214858 0.443405 0.896064
13.9487 12.4886 3.67264 0.0405182 0.436026 0.899022
14.3438 12.1441 3.82911 0.16383 0.489356 0.856557
14.349 12.8715 0.14272 0.420353 -0.119529 -0.899453
14.1717 13.1573 0.00892601 0.364995 -0.13805 -0.920717
14.4237 13.113 0.150117 0.522531 -0.0751147 -0.849305
14.4954 12.5659 3.5224 0.257448 0.466973 0.845965
14.2394 12.466 3.65022 0.167737 0.483452 0.85915
14.2471 11.4002 4.2093 -0.00425735 0.443249 0.896389
14.5785 10.6537 4.5939 0.0577339 0.456469 0.887864
14.8011 10.0874 4.84199 0.183242 0.456649 0.870571
15.0908 10.1327 4.74068 0.318713 0.45571 0.831114
14.8015 10.5282 4.61543 0.210757 0.450293 0.867651
15.1197 9.73756 4.95492 0.305624 0.457108 0.835252
14.9531 9.33059 5.21198 0.152015 0.442601 0.88374
15.1654 9.17795 5.23252 0.338046 0.432286 0.835975
14.6606 9.84886 4.98505 0.0832788 0.442649 0.892819
15.5009 9.48566 4.91971 0.390725 0.441144 0.807914
15.481 9.9853 4.64869 0.405581 0.451754 0.794621
15.8219 9.23715 4.88189 0.459742 0.434458 0.774522
15.8622 9.66998 4.61139 0.490027 0.439968 0.75253
15.4505 10.4141 4.41986 0.418213 0.451453 0.788218
15.5984 10.9203 4.04077 0.473469 0.469718 0.745112
15.4495 10.9597 4.10187 0.396151 0.487636 0.777994
15.8348 11.0645 3.69482 0.721622 0.504083 0.474512
16.0798 10.5713 3.83349 0.74009 0.458066 0.492385
16.6204 10.0687 3.35121 0.863416 0.363685 0.349636
16.7292 9.50204 3.61793 0.856236 0.351406 0.378647
16.8037 9.45923 3.46857 0.92218 0.306822 0.235468
16.9351 8.97773 3.53516 0.935339 0.284165 0.210691
16.8778 9.28439 3.31533 0.955847 0.277485 0.0967363
17.0487 8.49536 3.67233 0.931635 0.278216 0.233776
17.0211 8.72811 3.44156 0.962416 0.254231 0.095507
17.2041 7.92352 3.47821 0.983832 0.174711 0.0393665
17.1483 8.21683 3.39536 0.976315 0.215485 0.0193641
17.1297 8.19925 3.66832 0.966048 0.212714 0.146645
16.8986 9.24105 3.18278 0.965918 0.258045 0.0203877
16.7413 9.77128 3.23899 0.948439 0.296282 0.112611
16.5996 10.234 3.18783 0.934665 0.340785 0.101324
16.6112 10.2171 2.90716 0.947831 0.316561 -0.037501
16.6013 10.1701 2.61843 0.948184 0.298067 -0.110012
16.5804 10.147 2.45163 0.943651 0.278674 -0.178505
16.4982 10.1782 2.12709 0.935408 0.24841 -0.251603
16.6636 9.71815 2.31215 0.943094 0.234731 -0.235533
16.5805 9.717 2.02352 0.924358 0.208932 -0.319234
16.7378 9.35324 2.26695 0.939284 0.200176 -0.278704
16.9878 8.73698 2.78221 0.965609 0.194962 -0.172013
17.03 8.34415 2.63109 0.954495 0.161891 -0.25046
16.8586 9.09247 2.51105 0.953818 0.200337 -0.223822
16.8712 8.8231 2.36787 0.942119 0.171471 -0.288115
16.7891 8.85774 2.13933 0.922052 0.154555 -0.354871
16.6162 9.25681 1.88647 0.904441 0.159902 -0.395498
16.6759 9.33052 2.06992 0.926215 0.177775 -0.332449
16.4504 9.86997 1.7785 0.893608 0.19646 -0.403569
16.461 9.60164 1.68444 0.871544 0.155314 -0.465069
16.1665 9.7237 1.27768 0.735946 0.09047 -0.670969
16.4074 9.39741 1.54313 0.813627 0.100657 -0.572608
15.941 9.58292 1.05166 0.655466 0.0528911 -0.753371
15.9906 9.09711 1.08195 0.610597 0.00127867 -0.79194
16.3963 8.80348 1.44982 0.752263 0.0550676 -0.656558
16.1816 9.21574 1.2519 0.689392 0.037041 -0.723441
16.2846 9.28353 1.36721 0.766109 0.0718638 -0.638681
16.1898 8.6869 1.24236 0.658715 0.0168668 -0.752203
16.3878 8.24912 1.41164 0.701893 0.0289015 -0.711695
16.5618 8.41125 1.61586 0.779635 0.0569596 -0.623639
15.9179 8.7709 1.03216 0.573828 -0.0114143 -0.818896
15.8621 8.52957 1.00844 0.482786 -0.0410092 -0.874777
15.9392 8.03413 1.0635 0.47946 -0.031914 -0.876983
15.8141 7.71294 1.02434 0.388127 -0.0603608 -0.919627
15.8786 7.32872 1.07931 0.398624 -0.0572045 -0.915329
15.9953 7.01846 1.14667 0.434891 -0.0534971 -0.898892
16.0221 7.57209 1.13498 0.468039 -0.0477292 -0.882418
16.1327 7.656 1.20063 0.545827 -0.0242486 -0.837547
16.2758 6.15311 1.35059 0.523595 -0.0747149 -0.848685
15.9513 6.20898 1.1821 0.417166 -0.0668609 -0.906368
16.0667 5.77533 1.27813 0.460144 -0.143426 -0.876183
15.9007 5.8934 1.18467 0.333594 -0.131507 -0.933499
13.8015 6.0711 1.16458 -0.0802369 -0.0575405 -0.995114
13.8261 6.95539 1.13015 -0.187686 -0.0785255 -0.979085
14.056 7.48339 1.03729 -0.217541 -0.104463 -0.970445
13.4326 7.73071 1.11231 -0.0632908 -0.0629135 -0.99601
13.3617 7.19613 1.15266 0.0797835 -0.075961 -0.993914
12.8852 8.05853 0.976498 0.41372 -0.114286 -0.903202
12.1455 7.47108 0.734389 0.259822 -0.15539 -0.953072
12.0999 7.01637 0.770321 0.274446 -0.0804654 -0.95823
12.2772 4.82022 1.06896 0.118208 -0.175047 -0.977438
12.0977 5.70631 0.902217 0.141034 -0.123056 -0.982327
12.2236 4.18743 1.29186 0.0454888 -0.341307 -0.938851
11.4944 3.81692 1.4518 -0.364422 -0.208594 -0.907571
10.9796 3.85505 1.65989 -0.483071 -0.226875 -0.845677
10.7125 3.93103 1.81827 -0.59159 -0.206573 -0.779326
10.4804 3.81815 2.09821 -0.814903 -0.189372 -0.547787
10.3588 3.74265 2.30876 -0.8876 -0.147405 -0.436391
10.2469 3.81014 2.5228 -0.955709 -0.0640059 -0.287269
10.1906 4.15725 2.67933 -0.97928 -0.111979 -0.168735
10.1497 4.65203 2.49183 -0.992622 -0.1086 -0.0539132
13.1897 17.4057 -0.438442 0.773617 0.180356 -0.607444
12.9253 17.7897 -0.622536 0.691586 0.13519 -0.70953
13.0376 17.766 -0.50222 0.787785 0.216778 -0.576543
10.0616 5.51048 3.03178 -0.949835 -0.0474852 0.309125
10.1824 5.94374 3.37431 -0.920753 0.0272779 0.389191
10.3971 7.71468 3.18161 -0.702481 0.274958 0.656444
11.2614 8.96954 3.44626 -0.521988 0.25126 0.815105
11.5603 9.31203 3.53203 -0.539427 0.246132 0.805256
12.5811 10.3163 3.89855 -0.532482 0.277625 0.799617
12.1373 9.8204 3.76768 -0.558822 0.267339 0.785015
12.4604 9.54486 4.09617 -0.546643 0.28565 0.787138
13.2721 10.6511 4.21743 -0.476791 0.279207 0.833495
13.2314 11.1359 4.04186 -0.455238 0.277798 0.845923
13.6693 11.2136 4.20237 -0.301323 0.346587 0.888303
13.1485 11.6965 3.80585 -0.430515 0.294949 0.853031
13.4556 11.0377 4.18234 -0.388264 0.312192 0.867057
13.9602 10.9786 4.37546 -0.19447 0.396276 0.8973
13.9931 11.2994 4.23702 -0.135619 0.406326 0.903608
14.3382 10.7695 4.53807 -0.085355 0.431873 0.897887
14.286 10.1589 4.8157 -0.158253 0.41061 0.897973
14.2348 9.86835 4.93416 -0.195794 0.402279 0.894336
14.4942 9.87207 4.9783 -0.082468 0.422225 0.902732
14.2043 9.43939 5.12143 -0.245359 0.384016 0.89013
14.5496 9.23783 5.26982 -0.113272 0.408364 0.905764
14.8665 8.56656 5.59582 0.0130861 0.414796 0.90982
14.7882 8.82655 5.47057 0.0477859 0.428014 0.902508
14.4997 8.83268 5.44946 -0.118151 0.401683 0.908125
14.7052 9.31119 5.24161 0.0283205 0.429359 0.90269
15.1233 8.78697 5.43806 0.257246 0.435431 0.862685
15.6394 8.50418 5.3759 0.3773 0.423387 0.823643
15.6826 8.98738 5.09928 0.403889 0.431202 0.806808
16.1583 9.71465 4.36006 0.61449 0.423189 0.665817
16.1349 9.02953 4.79699 0.559341 0.414259 0.718002
16.2875 9.28621 4.49781 0.671359 0.397373 0.625598
16.4352 8.83023 4.62795 0.671836 0.382729 0.634157
16.3281 8.52684 4.90903 0.634005 0.378348 0.674455
16.2456 8.26237 5.12738 0.576523 0.391041 0.717432
16.4252 7.81379 5.21074 0.664457 0.365351 0.651932
16.5928 8.29488 4.76551 0.732558 0.348025 0.585011
16.4126 9.46985 4.23016 0.746645 0.393516 0.536346
16.1545 10.2056 4.02954 0.700519 0.42464 0.573545
15.9791 10.016 4.31894 0.568851 0.432933 0.699269
15.7565 10.2627 4.32996 0.478264 0.44415 0.757624
15.8493 10.5907 4.07411 0.571901 0.444608 0.689386
15.8394 10.7895 3.93309 0.635743 0.479192 0.605149
16.4457 10.044 3.71232 0.787952 0.412712 0.456947
16.3974 9.85396 3.94023 0.781969 0.394713 0.482416
16.5422 9.83193 3.70965 0.823643 0.370222 0.429591
16.8769 8.80352 3.94173 0.880241 0.322401 0.348186
16.621 9.38983 3.95098 0.818178 0.3742 0.43653
16.864 9.01367 3.74671 0.905581 0.309974 0.289549
17.0201 8.17536 4.11771 0.892079 0.286837 0.349171
17.1046 8.19245 3.79082 0.940038 0.239432 0.242902
17.2333 7.61581 3.74829 0.974521 0.17964 0.134308
17.1703 7.46916 4.21759 0.957091 0.204769 0.205055
17.254 7.62037 3.44884 0.988368 0.150398 0.0225424
17.1981 7.94079 3.21407 0.983402 0.172373 -0.0566441
16.761 9.74694 3.00796 0.958566 0.284772 0.00744975
16.7347 9.78577 2.80017 0.956137 0.270157 -0.113216
16.7979 9.44179 2.59512 0.952468 0.245191 -0.180794
16.8704 9.26545 2.77282 0.962914 0.228644 -0.143247
16.9901 8.83997 2.95581 0.972027 0.220584 -0.0806626
16.8578 9.3801 2.93221 0.967593 0.247201 -0.0515424
16.9517 8.29956 2.34434 0.936339 0.141313 -0.321402
16.8632 8.3465 2.12482 0.908717 0.1124 -0.401995
16.7359 8.59069 1.91816 0.890433 0.125283 -0.437531
16.5653 9.10123 1.7334 0.867666 0.125485 -0.48105
16.5993 8.68984 1.70245 0.825507 0.0910648 -0.556997
16.7551 8.14343 1.85567 0.859229 0.0839601 -0.504655
16.1606 8.20542 1.21116 0.601483 -0.00177358 -0.798884
16.2953 7.66486 1.31672 0.620497 -0.00132472 -0.784208
16.2615 6.84993 1.30675 0.542872 -0.0299882 -0.83928
16.4448 6.66682 1.44337 0.633417 -0.0258625 -0.773378
16.6612 6.13832 1.66733 0.731262 -0.0566892 -0.679737
16.5546 5.93651 1.58088 0.65662 -0.106312 -0.746692
16.2883 5.57152 1.44885 0.519716 -0.196047 -0.831541
15.8695 5.38722 1.27457 0.370285 -0.249136 -0.894886
15.6562 5.60855 1.15405 0.251745 -0.171097 -0.952549
16.0449 5.0109 1.47736 0.435116 -0.233137 -0.869667
15.5144 5.41922 1.16287 0.189027 -0.289917 -0.938199
15.8109 4.85079 1.43454 0.284351 -0.268049 -0.920486
15.4954 4.81412 1.36526 0.148852 -0.292632 -0.944569
14.9617 4.59077 1.37288 0.0819604 -0.289848 -0.953557
15.4432 4.58025 1.41786 0.11895 -0.195838 -0.973395
14.6682 4.44831 1.39292 0.0308751 -0.171259 -0.984742
14.3582 4.60828 1.34886 0.0193229 -0.204301 -0.978717
13.766 4.22246 1.41992 0.0515872 -0.216331 -0.974956
14.1915 5.30842 1.19583 -0.0633413 -0.10809 -0.992121
13.0898 4.83294 1.1775 0.136429 -0.227892 -0.964081
13.6702 5.05839 1.22988 0.0529311 -0.199112 -0.978546
13.6891 5.58393 1.17662 0.0202737 -0.100023 -0.994779
13.5325 6.37427 1.17078 -0.0287926 -0.0165069 -0.999449
13.0324 7.4612 1.07924 0.252296 -0.0261836 -0.967296
13.0903 6.64207 1.10989 0.279876 0.00467972 -0.960025
12.6393 6.96561 0.959794 0.332212 -0.0353767 -0.942541
12.4674 6.13304 0.929781 0.224494 -0.0684435 -0.972069
12.6079 4.70399 1.14742 0.0882414 -0.314768 -0.945058
12.8017 4.04071 1.37496 0.0919114 -0.181175 -0.979146
12.7075 3.55098 1.45081 0.0645445 -0.18998 -0.979664
12.5502 3.03058 1.5448 0.0472709 -0.202461 -0.978149
12.3555 2.71223 1.62635 -0.00881022 -0.261962 -0.965038
11.8794 3.27022 1.48141 -0.0136672 -0.193243 -0.981056
11.5147 2.91882 1.67557 -0.308211 -0.250867 -0.917645
14.1893 -1.5849 2.29121 -0.445628 -0.852613 -0.272887
10.3646 3.26374 2.3934 -0.790589 -0.14233 -0.595577
10.8927 3.16362 1.89294 -0.633627 -0.19942 -0.747495
10.1904 3.41453 2.83973 -0.956438 0.0153762 -0.291529
10.1542 3.43971 3.12569 -0.998761 0.0287877 0.0405879
10.1471 4.71103 3.0699 -0.984811 -0.063769 0.161498
10.1641 4.17189 3.1302 -0.983686 -0.0100822 0.179612
10.227 5.07483 3.43872 -0.916321 -0.0216609 0.399858
10.2376 6.59843 3.37207 -0.840275 0.089703 0.534688
10.7547 6.31963 3.98157 -0.658232 0.205774 0.724146
11.0346 7.16208 3.92825 -0.562151 0.265678 0.7832
10.9631 7.84215 3.64425 -0.530444 0.300985 0.792488
11.5861 8.29294 3.87578 -0.532214 0.285262 0.797103
10.9297 8.44824 3.38904 -0.524978 0.274156 0.805753
11.3623 7.39883 4.06952 -0.545585 0.280139 0.789848
11.8185 7.5798 4.32483 -0.595483 0.282999 0.751872
11.8386 8.88613 3.85258 -0.593776 0.277873 0.755127
12.3079 9.0557 4.16178 -0.585356 0.268412 0.765057
12.8025 9.73391 4.25159 -0.508916 0.297925 0.807617
13.2263 9.07975 4.76163 -0.497448 0.312835 0.809123
12.7746 9.21515 4.42655 -0.516991 0.304326 0.800066
12.7776 8.57521 4.67819 -0.510897 0.30851 0.802375
13.4732 8.43786 5.1618 -0.493501 0.312598 0.811627
13.6311 8.99213 5.03765 -0.481778 0.313124 0.818439
13.5744 9.65172 4.74942 -0.44777 0.322651 0.833905
13.1235 10.0759 4.32827 -0.496445 0.293714 0.816869
13.4831 10.27 4.46534 -0.449816 0.302788 0.840229
13.8204 10.8127 4.40695 -0.287157 0.363309 0.886311
13.7048 10.4851 4.49303 -0.378394 0.334587 0.863058
14.0457 10.0246 4.81152 -0.294176 0.37478 0.879204
13.8845 9.74275 4.86689 -0.376959 0.350009 0.857552
13.7513 9.35074 4.96385 -0.427005 0.336569 0.839278
13.8636 8.60307 5.31708 -0.430495 0.330465 0.839921
13.9829 9.15973 5.1515 -0.36469 0.353776 0.861303
14.2828 9.04302 5.30641 -0.244808 0.385399 0.889684
14.4135 8.46513 5.5916 -0.167582 0.390139 0.905377
14.6716 8.1229 5.78488 -0.0606172 0.398533 0.915149
15.1563 8.36088 5.64983 0.18947 0.422078 0.886539
15.3174 8.16609 5.69012 0.335497 0.42046 0.843004
15.785 8.03403 5.53763 0.400148 0.414185 0.817516
15.9397 8.5733 5.17462 0.46427 0.416018 0.781909
16.0914 8.56573 5.07816 0.543644 0.399122 0.738345
16.0562 8.04581 5.37964 0.497465 0.409393 0.764805
16.2705 7.5697 5.48339 0.566738 0.384005 0.728936
16.7061 7.2598 5.22998 0.713464 0.346628 0.608949
16.4904 7.25652 5.45673 0.643687 0.365937 0.672128
16.5722 6.96914 5.52986 0.682643 0.341351 0.646125
16.3968 6.99108 5.67857 0.577236 0.343863 0.740646
16.7564 7.61613 4.95484 0.753557 0.341501 0.56172
16.9493 6.95806 5.07955 0.781799 0.321044 0.534529
17.023 6.98923 4.94022 0.844198 0.308537 0.438333
17.0836 7.30737 4.58615 0.865011 0.289931 0.409508
16.9437 7.43605 4.76869 0.826015 0.317335 0.46583
17.0008 7.87037 4.36959 0.8464 0.299182 0.440564
16.8086 7.91456 4.67641 0.808716 0.320995 0.492891
16.5412 8.93706 4.42637 0.767448 0.360499 0.530155
16.8009 8.65971 4.19816 0.823804 0.332173 0.459356
16.6563 9.11179 4.1114 0.805505 0.36079 0.470099
17.1048 7.67867 4.26673 0.914837 0.254401 0.313612
17.3176 6.92173 4.03766 0.967932 0.198523 0.153933
17.3496 6.91953 3.70957 0.986033 0.160929 0.0428959
17.261 7.52041 3.18862 0.988486 0.129198 -0.0787617
17.3257 7.10112 3.38533 0.990996 0.133039 -0.0150552
17.2139 7.7134 3.02489 0.976902 0.146655 -0.155422
17.1238 8.26739 3.0809 0.975688 0.195727 -0.0986108
17.0471 8.65994 3.28179 0.972566 0.231894 -0.0184775
17.1843 7.57239 2.78193 0.961313 0.121469 -0.24723
17.0992 7.46087 2.46859 0.938507 0.0818367 -0.335422
17.0489 7.91089 2.46413 0.944071 0.123964 -0.305554
16.9636 7.78464 2.20761 0.915339 0.101397 -0.389709
16.9895 7.41946 2.18517 0.90161 0.0700855 -0.426835
16.8455 7.7022 1.95103 0.875125 0.0767845 -0.477765
16.8564 7.16837 1.90197 0.848594 0.0543409 -0.526246
17.0329 7.11064 2.23733 0.916513 0.0566579 -0.395972
16.9362 6.98137 2.01806 0.867905 0.0403569 -0.495088
17.0135 6.71063 2.14765 0.909152 0.0250917 -0.415708
16.9253 6.6015 1.98459 0.854414 0.00157854 -0.51959
16.7897 6.71569 1.7797 0.793643 -0.001481 -0.608382
16.6677 7.95986 1.70734 0.793333 0.051327 -0.606621
16.5356 7.87033 1.54679 0.730693 0.0358561 -0.681763
16.639 7.42241 1.6374 0.732031 0.0239123 -0.680852
16.6635 6.52957 1.6451 0.699899 -0.00288734 -0.714236
16.437 7.53173 1.43763 0.685313 0.0108668 -0.728167
16.9834 6.1907 2.0932 0.860596 -0.0160328 -0.509036
16.8588 5.9463 1.93057 0.782411 -0.0656899 -0.619288
16.698 5.51483 1.80658 0.707582 -0.111588 -0.697765
16.8726 5.36177 2.01139 0.74776 -0.0508881 -0.662016
16.4613 5.42556 1.61645 0.627144 -0.160661 -0.762154
16.6714 5.19531 1.82986 0.639763 -0.0985078 -0.762234
16.4546 5.09237 1.6871 0.537455 -0.157894 -0.828379
16.2861 4.86996 1.63147 0.456059 -0.147738 -0.877601
16.1043 4.55697 1.60218 0.36206 -0.170206 -0.916484
15.3108 4.09324 1.48632 0.0641687 -0.161408 -0.984799
14.3006 3.67746 1.51038 0.0253175 -0.148927 -0.988524
13.2804 5.66387 1.1342 0.154571 -0.0784272 -0.984864
12.6028 6.36717 0.962822 0.261047 0.00449697 -0.965316
12.6804 5.5587 1.01206 0.186555 -0.0845484 -0.9788
13.4017 4.13714 1.40798 0.0664256 -0.156586 -0.985428
13.3131 3.55751 1.48783 0.04662 -0.168204 -0.984649
13.0301 2.21867 1.74479 0.023737 -0.0448926 -0.99871
11.9637 2.56063 1.69212 -0.163675 -0.112392 -0.980091
11.3709 2.378 1.84639 -0.296374 -0.121523 -0.947309
11.2925 1.65767 1.97684 -0.418282 -0.153816 -0.895199
10.9784 2.55022 1.97833 -0.425668 -0.142178 -0.89364
10.4049 2.60773 2.45738 -0.745242 -0.120005 -0.655906
10.3235 2.94174 2.56108 -0.845148 -0.0777099 -0.528854
10.0388 2.71583 3.33292 -0.984655 0.160486 -0.0685508
10.053 2.79826 3.5976 -0.976737 0.206943 0.056205
10.3107 4.59388 3.64937 -0.89523 0.0389324 0.443901
10.4232 5.58546 3.79189 -0.794406 0.0907266 0.600573
10.5576 6.05096 3.86622 -0.69427 0.172153 0.698822
10.7333 7.16532 3.70901 -0.585641 0.243235 0.773215
11.6497 6.67377 4.52484 -0.602738 0.286957 0.744555
12.1505 6.79769 4.89711 -0.642105 0.305887 0.702947
12.2702 8.60227 4.30749 -0.604498 0.285348 0.743746
12.6151 8.1157 4.74477 -0.517568 0.301938 0.800598
13.2548 7.67749 5.31835 -0.50146 0.320508 0.803624
13.7021 8.21545 5.38093 -0.473585 0.319105 0.820907
13.6246 7.56193 5.5928 -0.470799 0.344077 0.812379
13.8468 7.7628 5.63532 -0.437587 0.326513 0.837799
14.0755 8.3029 5.53862 -0.392331 0.336729 0.855973
13.9921 7.48979 5.81812 -0.408783 0.34254 0.845909
14.2178 7.71348 5.82379 -0.31323 0.347161 0.883949
14.1321 7.29241 5.95736 -0.337105 0.348511 0.874586
14.2286 8.47643 5.53471 -0.305195 0.358021 0.882427
14.4689 8.03035 5.77756 -0.238887 0.358073 0.902617
15.0704 8.06324 5.79394 0.0980231 0.409108 0.907206
15.9538 7.64602 5.66399 0.444977 0.402188 0.80015
15.2495 7.65525 5.96555 0.283418 0.41767 0.863265
16.7846 6.38854 5.61426 0.633295 0.347434 0.691539
16.9261 6.52948 5.36612 0.751744 0.339042 0.565625
17.1484 6.45494 5.06463 0.821489 0.319179 0.472525
17.2637 6.43225 4.84254 0.889391 0.293654 0.35036
17.1955 7.02241 4.54111 0.922896 0.255381 0.288172
17.3785 6.69394 3.4567 0.988366 0.114493 -0.10012
17.3677 6.39578 3.16964 0.975294 0.087581 -0.202808
17.2703 7.21238 3.00089 0.980943 0.0925212 -0.170852
17.1098 8.12411 2.80946 0.968785 0.166716 -0.18347
17.2076 7.22764 2.74578 0.958148 0.073806 -0.276597
17.346 5.91075 2.93705 0.953252 0.0905071 -0.288305
17.2146 6.15744 2.59246 0.933631 0.0460251 -0.355268
17.2666 6.34253 2.7672 0.957115 0.0548597 -0.284467
17.3353 5.4856 2.79601 0.928021 0.0666748 -0.366513
17.1738 6.8367 2.55866 0.93894 0.048957 -0.34058
17.0992 6.3411 2.32474 0.915989 0.0222685 -0.400585
17.1506 5.60275 2.402 0.891474 0.0257823 -0.452337
17.1442 5.90044 2.40744 0.908281 0.0266237 -0.417514
17.0101 5.71696 2.16415 0.824162 -0.0240736 -0.565843
17.1602 5.18461 2.39871 0.874423 0.0247461 -0.484532
17.079 5.10241 2.27163 0.811126 -0.0115582 -0.584757
16.9997 4.9257 2.17168 0.762617 -0.0367972 -0.645803
16.8621 4.79078 2.0375 0.697322 -0.0651613 -0.71379
16.8055 4.35666 2.03476 0.628393 -0.115718 -0.769241
16.5744 4.38253 1.86718 0.519817 -0.130257 -0.844289
16.6347 3.96278 1.97533 0.569551 -0.177961 -0.802459
16.3771 4.11972 1.79804 0.443059 -0.155353 -0.882929
16.0965 4.18671 1.66443 0.367822 -0.17082 -0.914072
15.6712 4.04091 1.53178 0.228762 -0.164496 -0.959484
14.9274 3.57857 1.54488 0.0408815 -0.153527 -0.987298
14.7469 2.89423 1.65427 0.115126 -0.260254 -0.958652
13.9186 3.21366 1.579 0.0246754 -0.156474 -0.987374
13.713 2.59143 1.67443 0.00843231 -0.183435 -0.982996
14.1475 2.21053 1.7608 0.0974143 0.0420944 -0.994353
13.1708 2.55788 1.67811 0.0346869 -0.211454 -0.976772
12.3205 2.09198 1.71587 -0.0465219 0.0406599 -0.998089
12.7826 1.88939 1.70426 -0.00241341 0.164373 -0.986395
13.0458 0.846444 1.53379 -0.104267 0.140737 -0.984541
12.5124 1.45967 1.67709 -0.159007 0.0261899 -0.98693
12.7028 0.875722 1.61146 -0.206811 0.0464358 -0.977278
11.9135 1.88716 1.76889 -0.220183 -0.061734 -0.973503
11.7481 1.20283 1.86958 -0.307798 -0.111586 -0.944886
10.9166 1.95251 2.12236 -0.59373 -0.203149 -0.778598
10.7164 2.67984 2.13178 -0.576776 -0.113626 -0.808962
10.398 2.08376 2.58042 -0.706254 -0.149356 -0.692024
10.0624 2.45468 3.19031 -0.99711 0.0132682 -0.0747988
10.219 3.4762 3.64743 -0.944789 0.161439 0.28515
10.3347 3.13319 4.27501 -0.810766 0.416265 0.411561
10.4806 3.47943 4.19392 -0.864983 0.261184 0.428471
10.4997 3.72656 4.1216 -0.891038 0.0812195 0.446604
10.4989 4.06991 4.07057 -0.818169 0.0937588 0.567281
10.448 4.90186 3.87498 -0.865682 0.00971259 0.5005
10.909 5.12681 4.37888 -0.663101 0.119449 0.738937
11.1174 5.65167 4.47081 -0.628171 0.135075 0.766261
11.711 5.72612 4.92709 -0.659812 0.182999 0.728807
11.4245 5.36225 4.76787 -0.638279 0.131634 0.758467
11.4909 6.11971 4.6114 -0.592857 0.251836 0.764918
10.9309 6.46052 4.07635 -0.575965 0.260125 0.774984
12.459 6.12387 5.48784 -0.636992 0.31331 0.704328
12.4979 7.64363 4.83636 -0.594171 0.27522 0.755787
13.5532 6.89338 5.84264 -0.44886 0.351583 0.821532
13.6792 6.73918 5.97156 -0.408478 0.335047 0.849052
14.1012 7.00409 6.06154 -0.34864 0.331778 0.876569
13.9657 6.63114 6.14084 -0.359108 0.303938 0.882419
14.3315 6.56591 6.30111 -0.317227 0.298314 0.900209
14.4179 7.23326 6.08447 -0.298968 0.353861 0.886228
14.6035 6.96425 6.25185 -0.244455 0.344209 0.906511
14.5406 7.52683 5.99999 -0.242447 0.369268 0.89714
14.8273 7.01469 6.26387 -0.0504214 0.357035 0.932729
14.7495 7.53421 6.04046 -0.0959554 0.386504 0.917282
14.9476 7.75785 5.94429 0.0367981 0.411269 0.910771
15.6187 7.23236 6.03022 0.330952 0.389797 0.859377
15.6759 7.44378 5.89626 0.413256 0.395689 0.820152
15.7194 7.1037 6.03475 0.429347 0.354121 0.830819
15.3873 6.96985 6.22236 0.248866 0.359547 0.899328
15.5913 6.75311 6.22613 0.373783 0.311683 0.873579
15.8271 6.82104 6.09305 0.433121 0.311361 0.845849
15.9903 6.33113 6.18044 0.444967 0.326335 0.833972
16.1722 6.74944 5.93005 0.477022 0.315465 0.820324
16.2113 7.03394 5.78673 0.482999 0.352283 0.801629
16.4612 6.30285 5.9165 0.536744 0.333145 0.775191
15.7178 6.15761 6.37918 0.36839 0.32168 0.872245
15.9281 6.04039 6.34338 0.367247 0.429258 0.825147
16.383 6.0094 6.1073 0.468184 0.418179 0.778415
16.8937 5.94482 5.75389 0.66802 0.38072 0.639376
16.5975 5.97822 5.97936 0.559649 0.407271 0.721751
17.2664 6.72927 4.58177 0.944265 0.245491 0.219313
17.3971 6.19925 4.59455 0.941734 0.27584 0.192481
13.9746 6.20711 6.28104 -0.334002 0.269917 0.903099
14.1623 5.89182 6.43389 -0.31016 0.239792 0.919946
14.2913 6.17932 6.40064 -0.29237 0.251668 0.922596
17.3428 6.63066 4.28024 0.959931 0.230629 0.159193
15.109 6.62956 6.40506 0.0770218 0.321329 0.94383
15.1034 7.31574 6.13553 0.0777877 0.383753 0.920154
17.4522 6.25399 4.11305 0.968868 0.233025 0.0836351
17.5256 6.00586 3.90754 0.970999 0.23667 -0.0338754
17.424 6.44591 3.65191 0.984035 0.177104 -0.017597
17.4512 6.20181 3.52279 0.978665 0.161057 -0.127576
17.57 5.77519 3.75462 0.969192 0.208922 -0.130454
17.7078 5.30595 4.00891 0.971866 0.207956 -0.110594
17.4642 5.98052 3.39724 0.964511 0.13614 -0.226239
17.6069 5.54023 3.6939 0.963538 0.16927 -0.207223
17.5098 5.63767 3.3776 0.953231 0.128785 -0.27343
17.3586 5.07264 2.78291 0.908141 0.0473562 -0.415977
17.2757 4.68468 2.57482 0.881095 -0.00243344 -0.472933
17.1646 4.43365 2.41381 0.854672 -0.118507 -0.505462
17.0627 4.35948 2.29059 0.749083 -0.133261 -0.648935
17.1195 4.11238 2.50236 0.819906 -0.196276 -0.537801
17.3488 4.25757 2.86719 0.871173 -0.113432 -0.477694
17.4995 4.58409 3.05115 0.912907 -0.0482213 -0.405309
17.5589 4.2273 3.25668 0.890544 0.0560497 -0.45143
17.4245 4.04935 2.97635 0.836892 0.111768 -0.535836
16.9587 3.89898 2.37701 0.723346 -0.182478 -0.665937
16.9021 4.09878 2.19073 0.73237 -0.251261 -0.632852
16.6102 3.75855 2.01986 0.660675 -0.236846 -0.712329
16.3431 3.76216 1.85331 0.429257 -0.187265 -0.883556
15.924 3.65562 1.69724 0.371242 -0.181999 -0.910525
12.9411 7.15666 5.3506 -0.500052 0.365148 0.785248
15.4722 2.76728 1.82486 0.221231 -0.359244 -0.906643
15.5665 3.33385 1.6526 0.153308 -0.213742 -0.964785
15.6711 3.01276 1.75873 0.287699 -0.315183 -0.904372
14.3152 2.64858 1.67796 0.0426768 -0.197711 -0.979331
14.5963 2.46197 1.78342 0.137883 -0.224003 -0.964785
13.8663 1.95 1.74098 0.0612908 0.199236 -0.978033
14.6867 1.58296 1.69026 0.0415702 0.243983 -0.968888
14.286 1.08683 1.53669 0.0160355 0.248399 -0.968525
13.9079 11.3084 0.354693 -0.0610907 -0.228271 -0.971679
13.4467 11.1781 0.433604 -0.101163 -0.246574 -0.96383
13.3947 1.51895 1.64774 -0.0168717 0.223417 -0.974577
12.9176 0.261965 1.57137 -0.358834 -0.139757 -0.922879
12.6864 0.27553 1.68445 -0.44732 -0.237682 -0.862214
12.1096 1.1129 1.76246 -0.313787 -0.111968 -0.942868
11.8609 0.658116 1.95523 -0.482047 -0.321413 -0.815061
11.3898 1.26313 2.01293 -0.412922 -0.21736 -0.884449
10.5395 1.62639 2.56862 -0.819558 -0.280938 -0.499398
10.3478 1.49877 2.97613 -0.888919 -0.273579 -0.367394
10.197 1.58857 3.33355 -0.923631 -0.275156 -0.266823
10.1122 2.94835 3.95761 -0.948678 0.223783 0.223454
10.0415 2.20825 4.08442 -0.985505 0.023974 0.167945
10.1412 2.67887 4.26502 -0.871288 0.234212 0.431279
10.6167 3.14079 4.63226 -0.638491 0.41727 0.646696
10.9304 3.3997 4.74532 -0.687325 0.231617 0.688432
10.6346 4.13824 4.24008 -0.750454 0.136612 0.64665
10.6407 5.25366 4.09098 -0.736594 0.0844577 0.671041
11.3571 3.76341 5.02932 -0.664415 0.159725 0.730096
11.9578 3.77556 5.57858 -0.70265 0.155506 0.694335
11.7596 4.82441 5.16801 -0.684203 0.149791 0.713743
11.6062 4.3363 5.1299 -0.671265 0.155506 0.724722
12.1318 5.08899 5.48386 -0.693868 0.137198 0.706911
12.4338 5.35883 5.73343 -0.684435 0.159334 0.71145
12.1994 5.8153 5.36128 -0.689231 0.22795 0.687749
12.6487 6.37409 5.53204 -0.536002 0.364178 0.761627
12.4499 7.18566 4.98293 -0.580639 0.350615 0.734798
13.2438 6.94675 5.64105 -0.475846 0.362166 0.801502
12.9789 6.25238 5.79696 -0.480985 0.356244 0.801089
12.8982 5.90211 5.89295 -0.51789 0.307058 0.79844
13.6888 6.46187 6.08098 -0.394469 0.307608 0.865893
13.3627 6.20905 6.01556 -0.402694 0.29212 0.86747
14.5934 6.55299 6.38847 -0.215257 0.282799 0.934714
14.5929 6.05079 6.51946 -0.200894 0.23831 0.950184
14.8407 6.51453 6.44007 -0.0700324 0.269285 0.960511
15.3169 6.50374 6.41325 0.236564 0.298608 0.924592
15.1255 5.86755 6.60837 0.0083736 0.310252 0.950617
15.5419 5.94988 6.52595 0.269479 0.384652 0.88285
15.3507 5.91327 6.57467 0.121095 0.363992 0.923496
15.7015 4.93087 7.00429 0.0669519 0.461063 0.884838
15.6843 5.40274 6.77398 0.25168 0.454121 0.854653
15.3875 5.52308 6.75761 0.0616876 0.415738 0.90739
16.0522 5.01083 6.87607 0.29802 0.522198 0.799058
16.3784 4.13722 7.32816 0.293219 0.500007 0.814871
15.8944 4.55822 7.21628 0.201216 0.512457 0.834805
16.0918 4.01621 7.4764 0.169217 0.493342 0.853217
16.3556 4.4204 7.15738 0.292808 0.523428 0.800179
16.4997 4.97948 6.67891 0.423398 0.525079 0.738259
16.5997 4.40511 7.05836 0.431665 0.520311 0.736846
16.1986 5.20063 6.69225 0.384564 0.47952 0.788778
16.0642 5.60499 6.51959 0.351167 0.453448 0.819186
16.2578 5.70979 6.3582 0.440107 0.455329 0.773939
16.5475 5.43869 6.34098 0.488428 0.47017 0.735104
16.8489 5.5394 6.04111 0.601576 0.430742 0.672732
16.7953 5.30221 6.25302 0.584236 0.487512 0.648846
17.0806 5.54054 5.79614 0.720243 0.395521 0.569924
17.101 5.98736 5.46626 0.762057 0.358075 0.539492
17.2478 5.65004 5.47377 0.803769 0.359023 0.474402
17.2632 5.99606 5.20062 0.830165 0.335878 0.444986
17.4818 5.514 5.1341 0.868815 0.33911 0.360784
17.3998 5.89751 4.96228 0.90131 0.314339 0.298046
17.5412 5.86141 4.37314 0.94747 0.298725 0.114302
17.5635 5.70837 4.54821 0.931486 0.314845 0.182226
17.6627 5.49541 4.35288 0.948065 0.303648 0.0947142
17.7887 5.08022 4.3669 0.975129 0.221279 -0.0126416
17.6311 5.62226 4.13258 0.961912 0.273001 0.0140029
17.6669 5.2137 3.71887 0.958769 0.127797 -0.25383
17.4822 5.32565 3.16577 0.94626 0.101104 -0.307197
17.6645 4.98634 3.63006 0.961121 0.0533183 -0.270931
17.7547 4.99464 3.99162 0.980189 0.0674772 -0.186214
17.629 4.44331 3.43695 0.957302 0.0400301 -0.286303
17.519 4.89822 3.1487 0.942624 0.0654891 -0.327369
17.731 4.34118 3.75986 0.946598 0.181735 -0.266317
17.6521 4.21967 3.45342 0.916349 0.165771 -0.364451
17.8702 3.76131 3.7719 0.949063 0.114181 -0.293671
17.8928 3.89758 3.941 0.973245 0.13699 -0.184466
17.7317 3.60014 3.36821 0.888954 0.124261 -0.440818
17.5263 3.50226 3.00294 0.811659 0.10087 -0.575356
17.6445 3.33462 3.16157 0.853159 0.0118975 -0.521516
17.3594 3.27102 2.76926 0.755751 0.0264753 -0.654324
17.5071 2.69943 2.97089 0.839622 0.00746228 -0.543119
17.3508 2.70921 2.75243 0.759961 0.0587174 -0.647311
17.2948 2.07007 2.59842 0.805206 0.0323618 -0.592111
17.469 2.07031 2.89051 0.87377 -0.00228301 -0.486335
17.1213 2.96612 2.53672 0.661754 0.0481743 -0.748172
17.0718 3.75446 2.50968 0.699755 -0.00503393 -0.714365
17.2026 3.91929 2.65893 0.789224 0.0450396 -0.612451
16.6193 3.45853 2.12576 0.663865 -0.0986947 -0.741311
16.4422 3.32922 2.00277 0.526817 -0.150464 -0.836555
16.2568 3.11454 1.95376 0.371056 -0.213955 -0.903626
15.9281 2.88841 1.90728 0.270535 -0.308571 -0.911918
15.7706 3.4326 1.68026 0.321701 -0.213791 -0.922389
15.1945 2.40775 1.87262 0.182171 -0.303119 -0.935378
15.6538 2.28165 1.89235 0.0755038 0.197965 -0.977297
16.0932 2.06398 1.90809 0.21254 0.161405 -0.96373
15.8107 2.49067 1.93178 0.121969 0.0746796 -0.98972
16.1859 2.48994 1.98816 0.240975 0.0814507 -0.967107
16.0937 2.76171 1.96907 0.247907 -0.0871292 -0.964858
16.4273 2.62634 2.08219 0.389285 0.0152983 -0.92099
16.7626 2.09545 2.2235 0.457394 0.0553146 -0.887542
16.658 2.75922 2.18867 0.460186 0.0139057 -0.887713
17.019 2.16498 2.36655 0.520069 0.0401415 -0.853181
16.4952 1.16455 1.96072 0.470395 0.146334 -0.870238
16.4083 1.7304 1.99729 0.459916 0.109463 -0.88119
16.8717 1.68077 2.2533 0.512002 0.0861658 -0.854651
16.0761 1.15712 1.76226 0.364768 0.139831 -0.920538
16.3074 2.2331 2.00747 0.406236 0.0980998 -0.908487
15.9887 0.920988 1.67876 0.355515 0.206393 -0.911598
15.8113 1.30227 1.71438 0.212633 0.187561 -0.958962
14.9504 2.0887 1.82978 0.0393106 0.227693 -0.972939
15.2641 1.26387 1.63544 0.0858476 0.272054 -0.958445
15.0919 0.476445 1.39154 0.0527542 0.281082 -0.958233
13.9294 0.609873 1.4143 -0.00779563 0.239831 -0.970783
14.57 0.0614482 1.29628 -0.0216613 0.193032 -0.980953
13.4434 0.307141 1.41209 -0.222266 -0.0370776 -0.974281
13.8256 0.0340499 1.34964 -0.1381 -0.0465669 -0.989323
12.8567 -0.12788 1.73878 -0.564172 -0.442142 -0.697295
13.1824 -0.41108 1.65255 -0.550619 -0.513052 -0.65848
12.6766 -0.213101 1.94334 -0.589651 -0.596932 -0.544043
12.1054 0.28744 2.0096 -0.461633 -0.408632 -0.787347
11.6836 0.39112 2.20617 -0.492829 -0.478053 -0.727039
10.4061 0.935946 3.39556 -0.887373 -0.364577 -0.282228
10.6888 0.390866 3.31655 -0.804162 -0.481162 -0.349008
10.6431 0.733096 2.99852 -0.850563 -0.367458 -0.376188
10.9195 0.527816 2.78921 -0.625398 -0.585721 -0.515566
10.6584 0.17567 3.94159 -0.801913 -0.568548 -0.183543
10.4831 0.335679 4.23968 -0.860687 -0.498005 -0.105868
10.3134 0.674599 4.18772 -0.917369 -0.34547 -0.1977
10.2569 1.16025 3.66668 -0.938345 -0.288796 -0.190017
10.0594 2.07399 3.32457 -0.966322 -0.205407 -0.155017
10.0895 1.60627 4.23621 -0.980942 -0.0162803 0.193617
10.2814 2.26005 4.6898 -0.885791 0.16157 0.435051
10.6262 2.47222 4.9825 -0.552663 0.394755 0.733984
10.9603 2.99951 4.93825 -0.522215 0.381798 0.762576
11.3098 3.16041 5.15592 -0.645062 0.216871 0.732709
10.8557 4.1144 4.49045 -0.711218 0.122389 0.692235
12.1871 3.53291 5.88435 -0.723035 0.15019 0.674287
12.5287 4.66565 5.9404 -0.671528 0.179149 0.718996
12.884 3.96236 6.44723 -0.493862 0.249047 0.833112
13.0826 5.04222 6.20935 -0.413543 0.221887 0.883034
12.792 5.20525 6.02549 -0.511738 0.190291 0.837803
13.7295 6.05891 6.23171 -0.366849 0.259643 0.893312
13.7115 5.60105 6.34789 -0.365661 0.23702 0.900063
14.3495 5.54693 6.58283 -0.282891 0.256077 0.924336
14.6305 5.62253 6.62847 -0.181229 0.270462 0.945519
14.878 5.60842 6.6777 -0.17123 0.335994 0.926169
14.9296 5.83714 6.612 -0.0938921 0.246264 0.964644
15.2596 5.25083 6.87424 -0.056215 0.376561 0.924685
15.3086 4.76105 7.0719 -0.124546 0.395646 0.909919
15.7144 4.42935 7.30798 -0.0206803 0.480392 0.87681
16.0389 3.57978 7.75219 0.137721 0.529604 0.83699
15.7878 4.00428 7.51817 0.0285738 0.484761 0.87418
16.4079 3.61927 7.63774 0.278159 0.521349 0.806736
16.6462 3.75359 7.44184 0.422542 0.490673 0.762035
16.7482 3.88515 7.29003 0.532094 0.453417 0.715045
17.0803 3.77905 7.09078 0.635648 0.397764 0.661616
16.9978 4.39946 6.78129 0.558756 0.464832 0.686821
16.8689 4.84814 6.53004 0.514871 0.516895 0.683906
17.2765 4.49173 6.3983 0.746143 0.438752 0.500766
17.1203 5.26102 5.96076 0.692773 0.450977 0.562748
17.126 4.80089 6.32909 0.625418 0.491314 0.606187
17.2603 5.23644 5.77648 0.779559 0.399835 0.4821
17.46 5.21746 5.43833 0.816691 0.378378 0.435713
17.5287 5.59232 4.88896 0.917651 0.31993 0.235716
17.7448 4.883 5.03996 0.910819 0.331113 0.246522
17.7302 5.16332 4.66414 0.939811 0.305407 0.153238
17.8333 4.80665 4.67478 0.968727 0.2401 0.0626093
17.7106 4.65722 3.83414 0.972966 0.0443061 -0.226661
17.8185 4.80302 4.33563 0.986417 0.0747113 -0.146284
17.8297 4.57509 4.29684 0.964457 0.149319 -0.218006
17.8591 4.6553 4.54765 0.976645 0.180705 -0.116235
17.6715 3.12525 3.22603 0.902463 -0.0319622 -0.42958
17.6218 2.58201 3.17638 0.890059 -0.0198582 -0.455412
17.8054 3.30908 3.53267 0.941652 -0.0101283 -0.336435
17.747 2.39192 3.46194 0.934986 -0.0455239 -0.351752
17.5966 2.19158 3.13515 0.912489 -0.0370307 -0.407421
17.6978 1.94199 3.42428 0.939605 -0.0655239 -0.33593
17.5097 1.66005 2.98974 0.916926 -0.0337048 -0.397632
17.3035 1.52907 2.61228 0.836612 0.00793568 -0.547738
17.4375 1.30046 2.84897 0.890509 0.00484761 -0.454939
17.2533 0.987609 2.50885 0.806015 0.0598737 -0.588858
17.4783 0.944792 2.92207 0.921436 0.0197507 -0.388027
17.3554 0.998036 2.66918 0.883949 0.046162 -0.4653
17.4068 0.321409 2.71161 0.906923 0.0306067 -0.420183
17.2866 0.57748 2.50184 0.855815 0.0615712 -0.513605
17.1515 1.63415 2.4387 0.653801 0.0491592 -0.755068
17.1603 2.23293 2.46941 0.659729 0.0824781 -0.746964
16.7386 2.98179 2.23951 0.585035 0.0181125 -0.810806
16.9298 3.485 2.38779 0.642072 -0.0211038 -0.766354
16.4581 2.94133 2.07564 0.423139 -0.108653 -0.899526
16.7301 0.315444 1.9387 0.491215 0.135532 -0.86043
16.4576 0.62046 1.84087 0.459787 0.170004 -0.871605
16.9677 0.462282 2.10203 0.561497 0.151986 -0.813401
17.0968 0.956705 2.32838 0.664802 0.115825 -0.737986
17.14 0.655629 2.30762 0.755823 0.115503 -0.644507
17.15 -0.472457 2.24284 0.805824 -0.056047 -0.589497
17.1493 0.122207 2.22694 0.763472 0.049734 -0.643924
17.2602 -0.0510216 2.3927 0.875739 0.00413909 -0.482767
16.9707 0.190161 2.07303 0.573167 0.0706536 -0.816387
16.9736 -0.347422 2.049 0.625252 -0.0351657 -0.77963
16.6818 -0.24536 1.84754 0.534875 0.0204632 -0.844684
16.4458 -0.0922644 1.71535 0.496459 0.0989326 -0.862404
16.0079 0.138758 1.51018 0.415382 0.118897 -0.901843
15.9687 0.484799 1.56019 0.361166 0.202601 -0.910227
15.7113 0.575086 1.50858 0.218073 0.249813 -0.943418
15.5769 1.08828 1.62648 0.168054 0.258312 -0.951332
15.9201 -0.677576 1.45088 0.365291 -0.112092 -0.92412
15.5309 -0.197548 1.31143 0.246477 -0.0445462 -0.968124
14.906 -0.241941 1.25688 -0.0660179 -0.10633 -0.992137
13.9898 -0.596397 1.40142 -0.163306 -0.175016 -0.970928
14.1812 -0.843351 1.4458 -0.127177 -0.285406 -0.949931
13.8121 -1.14551 1.80034 -0.364928 -0.610501 -0.702934
13.5763 -0.523299 1.5105 -0.417713 -0.446158 -0.791492
12.695 -0.553808 2.32361 -0.544229 -0.736858 -0.401067
13.2163 -0.845111 2.01745 -0.61094 -0.610152 -0.504447
11.4492 0.465078 2.33805 -0.583483 -0.448813 -0.676842
10.7503 1.01506 2.60903 -0.622861 -0.387894 -0.679399
11.2601 -0.594587 4.9189 -0.566048 -0.798623 -0.204427
10.9167 -0.173935 4.29027 -0.639059 -0.743456 -0.197174
11.1301 -0.134546 3.50712 -0.576112 -0.787695 -0.218247
11.0019 -0.426047 5.10676 -0.757761 -0.651305 -0.0400155
10.5157 0.17648 4.85034 -0.798377 -0.602036 -0.0121342
10.736 -0.085637 5.61008 -0.849321 -0.524128 0.0628043
10.144 1.26362 4.11188 -0.955473 -0.263668 -0.132475
10.1947 0.910585 4.48564 -0.986306 -0.130582 0.100744
10.213 1.63982 4.76813 -0.935562 0.0765765 0.344761
10.3105 1.40749 5.05788 -0.871974 0.159815 0.462732
10.9405 1.85868 5.6025 -0.526763 0.460704 0.714334
11.3598 2.64014 5.39374 -0.498656 0.454172 0.738289
11.8266 2.73339 5.74736 -0.667637 0.236992 0.705759
12.567 3.51823 6.28607 -0.703456 0.171382 0.689766
12.4182 4.13348 5.98939 -0.673822 0.194425 0.712855
13.0467 4.46659 6.37438 -0.43896 0.286745 0.851523
13.4842 5.03051 6.40674 -0.401789 0.254149 0.879758
13.8422 5.21228 6.5032 -0.36334 0.268764 0.892048
13.8224 4.69022 6.66405 -0.352275 0.29068 0.889611
14.072 4.12569 6.94008 -0.313213 0.302447 0.900235
14.1294 5.21801 6.60715 -0.307838 0.283072 0.908354
14.6051 5.16221 6.77297 -0.258303 0.298638 0.918746
15.0303 4.63495 7.06118 -0.234707 0.337236 0.911693
14.7279 4.23425 7.12569 -0.311689 0.353248 0.882081
15.1575 4.26462 7.25409 -0.294202 0.403548 0.866368
13.7861 3.75249 6.96164 -0.364708 0.324328 0.872811
14.34 3.16427 7.42484 -0.410634 0.426207 0.806057
14.4211 3.47646 7.31719 -0.362313 0.3639 0.858083
14.0645 3.00695 7.36485 -0.442057 0.377253 0.813797
13.6992 2.24728 7.56426 -0.470315 0.444323 0.762484
14.5367 2.52478 7.92443 -0.468331 0.444568 0.763561
14.1566 1.84328 8.09376 -0.459563 0.458458 0.760669
14.4225 3.01225 7.5737 -0.459828 0.451736 0.764521
14.9356 3.40511 7.61438 -0.363772 0.476186 0.800573
14.7878 2.89569 7.85751 -0.391083 0.466278 0.793498
15.1887 2.7667 8.08043 -0.313078 0.465055 0.828074
15.3463 3.62537 7.63952 -0.301873 0.46984 0.829532
14.8709 3.74183 7.3933 -0.352208 0.408995 0.841827
15.3991 3.99511 7.48733 -0.296803 0.423679 0.855806
15.4043 4.48667 7.21565 -0.220057 0.439706 0.870766
15.5288 4.1179 7.45528 -0.114608 0.46115 0.879889
15.6017 3.77216 7.63005 -0.144451 0.484353 0.862865
15.6504 3.17153 8.0154 -0.132909 0.507043 0.851612
15.4356 2.99557 8.05559 -0.297294 0.472295 0.829791
15.5846 2.65057 8.27972 -0.243382 0.446251 0.861177
15.8342 3.50275 7.81568 0.0161969 0.52795 0.849121
16.2943 3.172 7.98154 0.212882 0.532767 0.819049
16.6698 3.14374 7.83683 0.466207 0.467012 0.751366
16.8846 3.55036 7.40417 0.552998 0.454061 0.698586
17.0014 3.19737 7.52807 0.646032 0.370892 0.667145
17.3369 4.06874 6.67522 0.723684 0.36395 0.586363
17.1316 4.5639 6.52787 0.63439 0.484567 0.602283
17.3736 4.52074 6.20959 0.803185 0.391715 0.448836
17.5684 4.73572 5.65638 0.832033 0.364081 0.418528
17.5726 5.10982 5.30141 0.87384 0.350012 0.337484
17.8875 4.39746 5.17774 0.934712 0.289284 0.206467
17.9632 4.20487 4.96455 0.985553 0.152496 0.0736884
17.9417 4.34452 4.74391 0.983227 0.177 -0.0439937
17.9384 4.21873 4.50793 0.973806 0.167154 -0.154148
17.8954 4.16038 4.2381 0.958214 0.190653 -0.213255
17.9678 4.0293 4.5705 0.994181 0.0612088 -0.0886484
17.9378 3.55584 4.1775 0.99311 0.0169133 -0.115956
17.9006 3.34894 3.86849 0.982142 -0.0136006 -0.187651
17.8477 3.01434 3.71756 0.965529 -0.0421693 -0.256855
17.8004 2.43337 3.63592 0.971287 -0.0437239 -0.233857
17.8607 2.36184 3.92742 0.983176 -0.0421349 -0.177736
17.8352 2.126 3.82444 0.972508 -0.0877595 -0.215699
17.5917 1.4837 3.20493 0.939066 -0.0240437 -0.342895
17.4078 -0.113679 2.69343 0.918693 -0.0177431 -0.394573
17.3252 -0.496699 2.55667 0.900224 -0.0825941 -0.427522
17.1702 -1.26164 2.43645 0.854788 -0.171405 -0.489855
17.1313 -0.885059 2.28741 0.825973 -0.109725 -0.552927
16.9697 -1.26891 2.16228 0.706821 -0.152235 -0.690817
16.9076 -1.83056 2.29402 0.752119 -0.301729 -0.585899
16.64 -1.79891 2.0538 0.482178 -0.304167 -0.821576
16.5098 -1.45106 1.88337 0.452112 -0.214102 -0.865884
16.8345 -1.53353 2.10101 0.585964 -0.201932 -0.784773
17.011 -0.790839 2.1336 0.626725 -0.0943098 -0.773513
16.4667 -0.623084 1.72382 0.516798 -0.0812972 -0.852239
16.1144 -1.06529 1.59862 0.41301 -0.178268 -0.893109
16.1596 -0.284202 1.54588 0.428038 0.0153881 -0.90363
11.186 0.215532 6.77685 -0.70685 0.258382 0.658485
15.7632 -1.08171 1.49684 0.199347 -0.265369 -0.943313
16.0662 -1.60074 1.72389 0.355387 -0.298734 -0.885696
16.6192 -1.08425 1.87902 0.539139 -0.120859 -0.8335
15.3871 -1.44797 1.59301 0.0234108 -0.385999 -0.922202
15.2499 -0.672416 1.32845 0.0982285 -0.246894 -0.964051
14.7335 -0.952104 1.40828 -0.127609 -0.395224 -0.909678
14.5704 -1.47215 1.75486 -0.284804 -0.743739 -0.604764
14.2406 -1.44595 1.88787 -0.353421 -0.716559 -0.601363
13.5159 -1.09205 1.98025 -0.527635 -0.785372 -0.323716
12.8853 -0.785833 2.55156 -0.644288 -0.722965 -0.249428
13.2356 -1.05066 2.548 -0.602628 -0.780381 -0.166867
12.2084 -0.213156 2.39748 -0.527296 -0.630337 -0.569767
11.801 -0.039878 2.54249 -0.494549 -0.653349 -0.573198
11.0236 0.0835312 3.18516 -0.671865 -0.66516 -0.32582
11.4949 -0.64705 4.55574 -0.498567 -0.836239 -0.228332
11.4398 -0.945746 5.7576 -0.695147 -0.708505 -0.121622
10.5945 0.256973 5.54953 -0.921097 -0.346944 0.176663
10.2287 0.92869 4.79944 -0.966424 -0.0676489 0.247889
10.4343 1.78976 5.13862 -0.762865 0.283125 0.581273
10.7231 1.26722 5.75632 -0.754648 0.270396 0.597823
10.6582 1.83885 5.35769 -0.690269 0.357678 0.628964
11.5338 2.33206 5.71154 -0.561219 0.40356 0.722615
12.2379 2.53562 6.22561 -0.657113 0.296262 0.693132
12.7268 3.17126 6.52716 -0.61245 0.200463 0.76467
13.0323 3.20608 6.74709 -0.571379 0.25267 0.780822
13.4025 2.71603 7.1381 -0.458591 0.306539 0.834103
13.3349 3.82288 6.73611 -0.44064 0.253272 0.861214
13.6152 3.39565 7.00189 -0.42941 0.28352 0.857452
13.1085 2.57936 7.01332 -0.571281 0.379727 0.72763
13.2351 1.80553 7.54744 -0.509626 0.462161 0.725733
13.3629 1.02773 8.11944 -0.471319 0.458924 0.753158
13.6641 1.47255 8.03274 -0.448339 0.464588 0.763643
14.6558 2.22562 8.16044 -0.418701 0.443307 0.79257
14.3791 1.55839 8.38408 -0.422881 0.441703 0.791246
14.8918 2.73679 7.98509 -0.329153 0.452619 0.828731
15.066 2.26977 8.30234 -0.300586 0.449859 0.840996
14.7686 1.87103 8.41214 -0.338889 0.450954 0.825709
15.1204 1.57266 8.68585 -0.268039 0.434382 0.859923
14.8264 1.5108 8.63733 -0.341859 0.423982 0.838673
15.7872 2.75525 8.26106 -0.0499214 0.451832 0.890705
16.0209 2.71319 8.274 0.102843 0.358739 0.927755
16.1093 2.94562 8.15621 0.104706 0.48386 0.868859
15.9867 2.30995 8.41736 0.172412 0.338389 0.925077
16.239 2.60848 8.26137 0.302485 0.315819 0.899311
16.513 2.98489 8.01052 0.378081 0.377702 0.84522
16.5622 2.63173 8.11287 0.490198 0.22985 0.840758
16.8009 2.83675 7.88528 0.623105 0.266457 0.73535
16.207 2.13471 8.41427 0.392327 0.253698 0.884147
16.5987 2.15042 8.19588 0.545364 0.192311 0.81584
16.8091 2.35166 7.98746 0.649811 0.156624 0.743784
17.3281 2.41896 7.41601 0.808902 0.0759432 0.583018
17.2161 2.63822 7.51967 0.747577 0.144826 0.648193
17.0859 2.13729 7.75029 0.738481 0.111542 0.664985
16.9622 2.58231 7.79816 0.69943 0.16407 0.695614
17.1885 2.91247 7.46303 0.727785 0.242592 0.641466
17.2838 3.1465 7.24089 0.71918 0.339018 0.606504
17.3744 3.66402 6.83219 0.759004 0.31155 0.571708
17.5792 3.50133 6.59075 0.848542 0.23218 0.475468
17.6549 3.82625 6.31681 0.860708 0.238215 0.449927
