-10.4111 5.90212 8.86164 -0.499384 0.436408 0.748441
-10.2279 6.05499 8.88159 -0.424557 0.451481 0.784803
-10.4235 5.62797 9.00791 -0.505806 0.416986 0.755171
-10.2405 5.60795 9.12678 -0.423341 0.438158 0.792969
-9.14415 5.5548 9.69177 -0.360092 0.455163 0.814346
-9.67899 5.17854 9.65014 -0.384863 0.42622 0.818668
-9.47443 4.99065 9.84058 -0.366078 0.415992 0.832429
-9.62063 3.95247 10.2653 -0.286304 0.394459 0.873174
-9.4562 4.46203 10.0874 -0.21552 0.371937 0.902892
-9.59454 4.572 9.99362 -0.333357 0.394972 0.856078
-9.21144 4.97575 9.94757 -0.217403 0.371222 0.902735
-9.25887 4.47714 10.1155 -0.036356 0.326387 0.944537
-9.33777 4.12751 10.2477 -0.082616 0.369394 0.925593
-9.73262 3.65239 10.3699 -0.296381 0.423373 0.856104
-9.88956 3.89022 10.1854 -0.38724 0.406138 0.827706
-9.49252 3.78652 10.364 -0.108778 0.384277 0.916787
-9.15954 4.04627 10.2807 0.073366 0.347973 0.934629
-9.00081 4.49072 10.097 0.145625 0.309643 0.939635
-9.005 5.08034 9.9207 0.035607 0.30007 0.953253
-9.15128 5.23568 9.84815 -0.229937 0.397402 0.88837
-9.00284 5.69892 9.66795 -0.293394 0.458559 0.838835
-8.85752 5.11615 9.89408 0.172304 0.239584 0.955464
-8.82858 4.89532 9.94381 0.248667 0.252495 0.935099
-8.69127 4.29794 10.0724 0.298501 0.317482 0.900057
-8.58395 3.38962 10.3947 0.333248 0.361618 0.870734
-8.91208 4.09432 10.2161 0.237059 0.344383 0.908407
-8.60301 4.56438 9.95477 0.355491 0.254301 0.899421
-8.69652 5.41472 9.78122 0.308071 0.234427 0.922028
-8.47314 4.97145 9.79992 0.400625 0.219077 0.889665
-8.433 5.43113 9.67672 0.411034 0.231117 0.881837
-8.12203 5.53786 9.48473 0.506268 0.215984 0.834892
-7.88785 5.54296 9.31573 0.625014 0.185392 0.758279
-7.9845 6.06086 9.24516 0.551266 0.268531 0.789935
-7.71148 3.84635 9.54942 0.75715 0.202279 0.621134
-7.9616 3.15092 10.0832 0.682703 0.25861 0.683402
-7.79729 4.13178 9.55907 0.713534 0.204699 0.67005
-7.98898 3.93714 9.81005 0.640164 0.25372 0.725132
-7.55948 3.54332 9.43345 0.853265 0.186225 0.487092
-7.65748 3.30657 9.66352 0.798116 0.216812 0.562141
-7.47461 3.94075 9.19101 0.8557 0.134021 0.499815
-7.28426 4.21993 8.79161 0.870016 0.0971766 0.483352
-7.29912 4.94316 8.68939 0.89232 0.0764133 0.444889
-7.18129 4.05184 8.60488 0.907337 0.0719174 0.414207
-7.11827 2.74813 8.60674 0.947864 0.0323817 0.317025
-7.25931 2.89719 8.96694 0.931445 0.0731328 0.356458
-7.07255 2.42301 8.48328 0.986863 0.0794249 0.140691
-6.98697 1.9523 8.33878 0.966813 0.20187 0.156591
-6.89751 3.29235 7.52918 0.987873 -0.087674 0.128139
-6.98327 3.2722 8.0527 0.974566 -0.00882611 0.223927
-6.97274 2.452 7.71583 0.981262 0.0901992 0.170259
-6.84346 2.7657 6.80987 0.985063 0.0461039 0.16591
-6.81246 2.28518 7.23334 0.95257 0.245933 0.17924
-6.77533 2.46583 6.69845 0.95507 0.260044 0.142189
-6.67763 2.088 6.52215 0.975728 0.20446 0.0784268
-6.6239 1.68905 5.97634 0.985877 0.101301 -0.133362
-6.70538 2.32329 6.00313 0.987791 0.150056 -0.0418579
-6.59294 1.53391 6.23522 0.991906 0.122757 -0.0324528
-6.78909 2.5834 5.62073 0.980934 0.0885361 -0.173
-6.82897 3.1395 5.38865 0.96612 -0.0670395 -0.249235
-6.75052 2.81587 5.97647 0.995136 0.00849855 -0.0981464
-6.85867 3.5343 5.08519 0.918139 -0.228153 -0.323986
-6.99104 3.07098 5.03808 0.898154 -0.180982 -0.400705
-6.95912 3.71316 4.74473 0.853131 -0.283691 -0.43782
-7.08917 3.59192 4.60227 0.737409 -0.313186 -0.598451
-6.94477 4.36199 4.38707 0.782883 -0.30765 -0.540782
-7.11051 4.11873 4.34432 0.638779 -0.301702 -0.707769
-7.57662 4.25514 4.12936 0.271132 -0.267623 -0.924589
-7.26513 4.21771 4.23226 0.359298 -0.265781 -0.894576
-7.5535 3.16082 4.42539 0.31467 -0.256385 -0.91392
-7.86845 3.20575 4.35237 0.178736 -0.231097 -0.956372
-7.27208 3.4886 4.46176 0.457533 -0.273734 -0.84601
-7.77132 2.60997 4.44662 0.14305 -0.11577 -0.982921
-8.27274 3.11126 4.3108 0.0819887 -0.155609 -0.98441
-8.50288 3.06395 4.31166 -0.108252 -0.128215 -0.985821
-8.58863 2.73339 4.36744 -0.184896 -0.0682851 -0.980383
-9.10597 2.873 4.49076 -0.407085 -0.0531029 -0.911845
-9.20542 3.55978 4.46001 -0.459417 -0.155586 -0.874488
-9.47557 2.2386 4.67079 -0.693502 0.113285 -0.711492
-9.41824 1.88409 4.58193 -0.563672 0.0356718 -0.825228
-9.795 1.28223 4.86894 -0.715451 0.063559 -0.695765
-10.0782 2.96209 5.46625 -0.809765 0.0578826 -0.583892
-9.84406 2.65694 5.13132 -0.787332 0.0958247 -0.609037
-11.0054 3.41536 7.05997 -0.855496 0.0604172 -0.514273
-10.9415 3.00242 6.86915 -0.850937 0.137917 -0.506838
-11.1883 3.29794 7.36535 -0.875965 0.105464 -0.470704
-10.9544 3.80281 6.992 -0.845036 0.00219732 -0.534704
-10.7411 3.96853 6.66399 -0.830298 -0.00376303 -0.557306
-10.8646 4.38503 6.83445 -0.835607 -0.00991563 -0.549238
-11.0656 4.00807 7.17911 -0.877934 0.00803272 -0.478714
-10.7587 5.93985 6.81812 -0.883125 0.113743 -0.455141
-11.2131 5.1269 7.8652 -0.978125 0.156258 -0.137314
-11.2158 5.15489 7.9447 -0.982887 0.183355 -0.0177075
-11.2 5.21857 8.05452 -0.969589 0.237318 0.0598122
-11.2175 5.03717 8.28532 -0.936945 0.263231 0.229878
-11.099 5.38855 8.32274 -0.884646 0.333627 0.32572
-11.2099 3.5668 9.33005 -0.749577 0.408497 0.52083
-11.3203 3.58073 9.12577 -0.832828 0.393681 0.389117
-10.9187 3.82004 9.50413 -0.643305 0.374358 0.667843
-10.7412 4.04779 9.54929 -0.624639 0.35394 0.696098
-10.9776 4.07937 9.30729 -0.673384 0.336459 0.658293
-10.7474 4.45489 9.3456 -0.63032 0.337668 0.699055
-11.0902 3.70351 9.38934 -0.715609 0.375412 0.589041
-10.809 4.86137 9.09038 -0.662985 0.335157 0.669418
-10.9371 4.5941 9.08749 -0.710811 0.325714 0.623425
-10.6782 4.83484 9.22391 -0.60149 0.353188 0.716566
-10.6069 5.2901 9.05334 -0.593387 0.376647 0.711357
-10.7832 5.23674 8.9203 -0.671073 0.351458 0.652793
-10.6348 5.72862 8.79505 -0.609048 0.403249 0.682972
-10.4645 6.07291 8.72122 -0.550114 0.452932 0.701589
-10.4799 5.22415 9.18906 -0.52293 0.382249 0.76186
-10.4001 3.91309 9.87797 -0.502315 0.38498 0.774255
-10.5451 4.14372 9.66294 -0.558314 0.365246 0.744903
-10.5208 3.71499 9.89897 -0.525858 0.417908 0.740828
-10.1316 4.01673 9.99274 -0.453666 0.395861 0.798424
-10.2402 3.69979 10.091 -0.475358 0.422324 0.771801
-10.0144 3.67013 10.2346 -0.407474 0.427691 0.806873
-9.8068 4.40556 9.97592 -0.395846 0.400406 0.826427
-9.50302 2.99132 10.7945 -0.0597721 0.49593 0.866303
-9.31506 3.56236 10.4658 0.0263005 0.422319 0.906066
-9.5762 3.46285 10.5004 -0.177967 0.472436 0.86321
-8.91114 3.57991 10.415 0.180578 0.366756 0.912623
-8.87089 3.32414 10.521 0.255288 0.43892 0.861497
-8.48262 4.01268 10.0964 0.394261 0.327562 0.858639
-8.44107 3.57138 10.2607 0.429604 0.336702 0.837897
-8.21466 4.88038 9.68819 0.486549 0.206312 0.848944
-8.00088 5.00574 9.52193 0.594 0.183194 0.783329
-8.0722 4.49184 9.69966 0.551084 0.233232 0.801192
-7.8793 4.41869 9.5671 0.644589 0.197358 0.738617
-8.12796 3.47638 10.106 0.585113 0.297395 0.754453
-7.7898 3.28516 9.84478 0.74459 0.25414 0.617251
-7.68844 2.86416 9.90759 0.751456 0.28007 0.59739
-7.41827 3.15142 9.31246 0.897609 0.116784 0.425042
-7.28889 2.02285 9.65669 0.939589 0.218827 0.263225
-7.47269 2.68979 9.66598 0.912864 0.229233 0.337832
-7.38665 1.96764 9.93223 0.810735 0.277633 0.515391
-7.14792 1.5204 9.62194 0.915902 0.258731 0.306891
-6.92173 1.46029 8.73897 0.928413 0.315246 0.196647
-6.76169 1.21894 8.30437 0.932555 0.317495 0.171866
-7.05997 1.81903 8.99084 0.945763 0.243554 0.214975
-6.91311 2.53165 7.35898 0.944655 0.24725 0.215626
-6.78615 2.16406 5.46789 0.949379 0.105213 -0.295991
-6.95786 2.33014 5.12344 0.913342 0.0761968 -0.400001
-6.94302 2.77822 5.18662 0.916799 -0.0655116 -0.393939
-7.15916 3.0856 4.76177 0.838473 -0.236645 -0.490879
-7.48848 2.74921 4.52705 0.341214 -0.0682145 -0.937507
-8.00876 2.06622 4.47243 0.0741647 -0.114805 -0.990616
-8.68329 2.31462 4.39871 -0.047233 -0.0665957 -0.996661
-9.04218 2.37846 4.44322 -0.322417 0.0240174 -0.946293
-9.21366 2.05763 4.49652 -0.437751 0.0693578 -0.896417
-10.4178 1.62388 5.66403 -0.794631 0.141314 -0.590417
-10.647 2.2004 6.13946 -0.822449 0.138945 -0.551609
-10.899 2.01376 6.48768 -0.834982 0.175009 -0.521705
-11.2777 2.5027 7.27942 -0.847578 0.168083 -0.503348
-11.2952 3.84133 7.72055 -0.948764 0.0896459 -0.303003
-11.3048 3.42915 7.63596 -0.916451 0.125654 -0.379907
-11.4226 3.40764 7.95063 -0.948589 0.149027 -0.27923
-11.6485 2.42775 8.01818 -0.929717 0.202343 -0.307708
-11.5702 2.96288 8.18206 -0.948455 0.212755 -0.23488
-11.4846 3.04673 7.94339 -0.92441 0.182335 -0.334994
-11.5337 2.59347 7.81426 -0.902758 0.210785 -0.374963
-11.73 2.30139 8.19661 -0.955296 0.203857 -0.214131
-11.6895 2.71871 8.47528 -0.968127 0.227249 -0.105298
-11.326 3.98271 7.90238 -0.972017 0.107976 -0.208622
-11.1589 4.18282 7.36765 -0.918221 0.0058435 -0.396025
-11.2373 4.17387 7.57979 -0.955568 0.0408192 -0.291931
-11.1097 4.60249 7.25649 -0.908826 0.0241916 -0.416473
-11.2276 3.78088 7.5179 -0.92089 0.0427098 -0.387477
-11.4916 3.3351 8.19933 -0.968309 0.199728 -0.149958
-11.3551 4.04179 8.1335 -0.983961 0.140609 -0.10977
-11.5804 3.10906 8.53146 -0.963749 0.264093 -0.0379912
-11.6766 2.79879 8.77723 -0.965079 0.25504 0.0598111
-11.5333 3.25596 8.7302 -0.958254 0.279553 0.0600029
-11.2818 2.71057 9.85113 -0.768475 0.343697 0.53974
-11.3581 3.27088 9.36141 -0.785805 0.368678 0.496576
-11.483 2.89999 9.38058 -0.859838 0.305861 0.408813
-11.5058 3.14247 9.1912 -0.865815 0.354185 0.353438
-11.1578 3.11345 9.74489 -0.706834 0.414035 0.573551
-10.919 3.60664 9.63841 -0.623922 0.444451 0.642795
-10.8026 3.29057 9.96234 -0.551601 0.443312 0.706549
-11.1079 2.98332 9.89233 -0.632792 0.412413 0.655355
-10.7107 3.71353 9.7504 -0.587706 0.411815 0.696426
-10.3131 4.68933 9.55667 -0.484228 0.384397 0.785978
-10.5379 3.11295 10.2313 -0.468232 0.414486 0.780359
-10.165 3.26768 10.3673 -0.456754 0.41754 0.785517
-10.1367 2.3201 10.843 -0.461548 0.267522 0.845816
-9.99375 2.70819 10.765 -0.438269 0.400278 0.804797
-10.3694 2.36382 10.6936 -0.507631 0.305305 0.805667
-9.8202 3.28647 10.529 -0.335631 0.453401 0.825699
-9.77978 2.85184 10.7973 -0.311896 0.449911 0.83684
-9.09895 3.41849 10.5195 0.116402 0.484391 0.867073
-8.49845 2.83005 10.601 0.412117 0.394895 0.821107
-8.74376 3.09023 10.5915 0.344168 0.419337 0.840062
-7.85029 2.87733 10.0885 0.681897 0.290731 0.671187
-8.12152 2.95769 10.306 0.598237 0.305317 0.740874
-7.59429 2.46731 9.98228 0.733607 0.298261 0.610624
-7.82813 2.41162 10.2706 0.674187 0.317117 0.667015
-8.09327 2.29621 10.5849 0.636196 0.392614 0.66416
-7.71651 2.02207 10.3503 0.715411 0.352815 0.603083
-7.38635 1.59275 10.1632 0.830476 0.353115 0.430836
-7.47509 1.81017 10.1619 0.788091 0.324015 0.523379
-7.45674 1.34841 10.4727 0.771121 0.379793 0.511008
-7.1311 1.13613 10.0094 0.879996 0.334355 0.337364
-6.81449 0.415338 9.85648 0.908806 0.326077 0.260278
-6.90981 0.874112 9.60264 0.909567 0.332166 0.249707
-6.65923 0.602295 8.90047 0.925007 0.320973 0.20332
-6.56787 -0.870168 10.5267 0.929729 0.213878 0.299768
-6.38263 -1.48167 10.3763 0.951573 0.223645 0.210931
-6.26005 -1.0527 9.29759 0.95228 0.240928 0.187393
-6.22924 -0.769334 8.78792 0.951465 0.239525 0.193241
-6.45173 -0.18966 9.10376 0.944632 0.258429 0.202201
-6.63518 -0.138697 9.87457 0.934571 0.286097 0.211483
-6.71776 0.0528237 6.25256 0.743079 -0.251134 -0.620294
-6.69881 1.83812 7.11324 0.97807 0.132679 0.160547
-6.56977 1.36918 6.50189 0.992166 0.124441 -0.0110349
-6.62061 1.62324 6.73626 0.978124 0.176534 0.110045
-6.4864 0.792585 6.89181 0.981162 0.173909 -0.0841245
-6.65733 1.66551 5.78219 0.975824 -0.00971359 -0.218344
-6.5173 0.757837 6.49272 0.989034 0.0259824 -0.145382
-6.56967 0.821514 6.25676 0.962304 -0.0661228 -0.263815
-6.75718 0.912046 5.7453 0.876098 -0.206907 -0.43548
-6.65923 0.58087 6.10822 0.843371 -0.250344 -0.47545
-6.78768 1.50902 5.45637 0.864467 -0.173551 -0.47178
-6.67293 1.17117 5.81937 0.93816 -0.0702021 -0.339011
-7.33651 2.87645 4.6157 0.716075 -0.0409726 -0.69682
-7.18141 1.95238 4.82252 0.691568 -0.0573667 -0.72003
-7.46128 2.30535 4.55817 0.56529 -0.0374722 -0.824041
-7.47054 1.83945 4.60932 0.579267 -0.163176 -0.798638
-7.16455 2.43201 4.82029 0.752294 -0.0247162 -0.658364
-6.95232 1.90216 5.09666 0.833888 -0.0807769 -0.545991
-9.4845 1.26624 4.68506 -0.385188 -0.170711 -0.906911
-9.5944 0.451713 4.97181 -0.258359 -0.295618 -0.919707
-9.72508 1.12429 4.82907 -0.417894 -0.203048 -0.885515
-10.1239 0.761904 5.15602 -0.710132 0.0940177 -0.697763
-10.4251 0.529359 5.39489 -0.71925 0.14267 -0.679944
-10.1215 1.94236 5.35296 -0.755631 0.119874 -0.643935
-11.405 2.73027 7.60209 -0.881278 0.180378 -0.436822
-11.8376 2.00931 8.46762 -0.960998 0.237288 -0.142046
-11.8467 2.08438 8.81049 -0.953506 0.301342 0.00447126
-11.9435 1.78389 8.9674 -0.932421 0.352949 0.0775768
-11.8565 1.95823 9.15003 -0.934297 0.305547 0.183657
-12.1256 1.32794 8.97648 -0.930142 0.361436 0.0648101
-11.9542 1.68673 9.14602 -0.916177 0.355496 0.185047
-12.3108 0.849947 8.81821 -0.953253 0.302096 -0.00684266
-12.1307 1.30897 8.75791 -0.927941 0.360934 -0.0930182
-12.1967 1.07552 9.17466 -0.92841 0.294511 0.226534
-11.6993 2.17442 9.4742 -0.884238 0.278569 0.374864
-11.6311 2.64751 9.18064 -0.921911 0.279753 0.26799
-11.7706 2.36436 8.76476 -0.974804 0.222914 0.00819733
-11.7208 2.45323 9.02272 -0.957033 0.253341 0.141088
-11.5621 3.08057 9.06026 -0.940655 0.278213 0.194336
-11.5328 2.47856 9.60704 -0.84191 0.273071 0.465424
-10.7244 2.56234 10.3798 -0.529427 0.326876 0.782853
-10.795 3.08759 10.0849 -0.500542 0.398969 0.768298
-10.9801 2.86716 10.064 -0.556478 0.372266 0.742799
-10.4928 1.00436 10.8849 -0.442883 0.119567 0.888571
-9.96631 1.1497 11.1077 -0.395722 0.125613 0.909739
-10.0814 1.52229 10.9958 -0.425018 0.14437 0.893598
-10.0357 0.895785 11.1045 -0.403606 0.0764258 0.911735
-10.3108 0.602929 11.003 -0.412405 0.0331524 0.910397
-10.4262 2.77094 10.4728 -0.48169 0.386206 0.786651
-9.91864 2.415 10.9207 -0.340778 0.249953 0.906308
-9.64023 2.75626 10.8958 -0.187217 0.362303 0.913064
-9.57971 2.3351 11.0373 -0.226369 0.233479 0.945645
-9.36475 2.59347 10.989 -0.0464241 0.320958 0.945955
-9.40571 1.97864 11.1512 -0.1297 0.246557 0.96041
-9.18455 2.06472 11.1498 -0.041171 0.275238 0.960494
-8.07054 1.72008 10.9246 0.6061 0.431381 0.668247
-7.74167 1.22136 10.9399 0.662624 0.431969 0.611826
-7.71349 1.6619 10.5882 0.688012 0.412362 0.597157
-6.82668 -0.550408 10.9118 0.861885 0.307771 0.403028
-6.6388 -0.913428 10.7685 0.881213 0.236655 0.409215
-6.50263 -1.66666 10.8265 0.8996 0.141694 0.41309
-6.42904 -2.02145 10.7013 0.938988 0.055525 0.339439
-6.65189 -1.33833 10.9848 0.836029 0.186604 0.515979
-6.85853 -0.756552 11.074 0.782827 0.219663 0.582177
-6.65287 -1.67677 11.0684 0.787431 0.0727624 0.612093
-6.40135 -3.15893 10.6835 0.923629 -0.0166265 0.382926
-6.34293 -2.68998 10.5245 0.934268 0.0083669 0.356472
-6.45049 -2.72283 10.7755 0.897553 0.0101913 0.440789
-6.52499 -2.00893 10.9048 0.862406 0.0337257 0.505092
-6.18965 -3.06026 10.1028 0.948739 0.0294587 0.314686
-5.96053 -1.82694 8.73103 0.969219 0.201955 0.140815
-6.03148 -1.27785 8.26598 0.983167 0.164942 0.0785899
-6.10889 -1.01019 8.49206 0.965362 0.208365 0.157038
-6.1974 -0.454475 8.23825 0.954232 0.274114 0.119597
-6.3677 0.188056 8.00696 0.941765 0.307673 0.135709
-6.77016 1.6726 7.59295 0.951515 0.259181 0.165663
-6.57576 0.936209 7.70447 0.943632 0.304626 0.129464
-6.6608 1.31457 7.43111 0.951262 0.288247 0.109611
-6.52428 0.938597 7.10039 0.969193 0.246301 -1.75712e-005
-6.48596 -0.0557423 6.64794 0.904157 -0.073631 -0.420808
-6.43622 0.169028 6.72961 0.951229 0.0190463 -0.307896
-6.50675 -0.423114 6.72092 0.795852 -0.210904 -0.567573
-6.82538 0.218782 6.03367 0.724715 -0.353579 -0.591414
-6.88431 0.872387 5.57869 0.73208 -0.33977 -0.590436
-6.94 1.45734 5.24071 0.744297 -0.258891 -0.615628
-7.75291 1.67854 4.55258 0.260028 -0.358782 -0.896471
-8.3124 1.15721 4.62113 0.0920336 -0.29451 -0.951206
-7.82146 1.04541 4.80242 0.251815 -0.450314 -0.856625
-8.31921 0.744832 4.82302 0.202134 -0.453662 -0.867947
-8.66637 0.902683 4.6973 0.0507515 -0.383685 -0.922068
-9.15286 0.983178 4.69271 -0.123148 -0.358957 -0.925194
-9.83115 0.54423 5.01498 -0.367684 -0.236934 -0.899261
-10.6756 0.110338 5.55214 -0.610219 0.104955 -0.78525
-10.9409 0.836446 6.07215 -0.749091 0.239136 -0.617799
-10.475 0.853472 5.52428 -0.727147 0.197744 -0.657384
-10.9002 0.243249 5.80623 -0.711638 0.236537 -0.66153
-11.1592 0.78787 6.3431 -0.798153 0.349558 -0.490675
-10.8443 1.17113 6.10142 -0.796539 0.261741 -0.544993
-11.9453 0.413689 7.3955 -0.80829 0.377537 -0.451811
-11.6123 0.268692 6.68589 -0.791836 0.373938 -0.482873
-11.404 1.09194 6.95804 -0.829417 0.249942 -0.499596
-11.7268 0.952354 7.42663 -0.830922 0.310161 -0.461919
-11.53 1.2389 7.22852 -0.861566 0.185863 -0.472397
-11.3325 1.68911 7.04928 -0.833903 0.180274 -0.521639
-11.2416 1.28827 6.77871 -0.827313 0.178277 -0.532701
-11.6141 2.03054 7.68382 -0.895166 0.183995 -0.405984
-11.4198 1.89157 7.27203 -0.846218 0.19628 -0.495368
-12.435 0.326475 8.58246 -0.963658 0.256999 -0.0729077
-12.4339 0.324134 8.82215 -0.974749 0.215349 0.0590648
-12.3306 0.735487 8.98718 -0.960395 0.22664 0.162097
-12.4287 0.227066 8.98632 -0.960864 0.179152 0.211295
-11.8853 1.19071 9.7317 -0.776123 0.263493 0.572892
-11.6456 1.84693 9.724 -0.801102 0.281506 0.528195
-11.9858 1.22336 9.55741 -0.835969 0.306019 0.455531
-11.1236 2.62665 10.0667 -0.640825 0.285763 0.712518
-11.4222 2.52635 9.76899 -0.784294 0.297122 0.544611
-10.806 2.10849 10.4814 -0.555846 0.224221 0.800475
-11.0362 1.18223 10.5291 -0.545895 0.147954 0.824687
-10.837 1.51991 10.587 -0.537731 0.171291 0.825533
-11.0919 1.40366 10.446 -0.590687 0.189345 0.78437
-10.6417 1.43508 10.7223 -0.499097 0.153228 0.852891
-10.7139 1.88525 10.595 -0.532988 0.166733 0.829532
-10.4371 2.04472 10.7385 -0.496353 0.170795 0.851154
-10.1793 2.08219 10.873 -0.424785 0.145265 0.893564
-10.2508 1.72805 10.8792 -0.440805 0.125953 0.888722
-9.9013 1.88326 11.0257 -0.366301 0.157205 0.917121
-9.7756 1.56754 11.1274 -0.355871 0.155905 0.921439
-9.3945 1.25392 11.3079 -0.244715 0.155826 0.956992
-9.36523 1.65736 11.2363 -0.224013 0.201334 0.953563
-9.62237 1.56128 11.1874 -0.330908 0.146491 0.932223
-9.68158 1.93151 11.0937 -0.279399 0.188866 0.941417
-8.58471 1.84344 11.151 0.323923 0.399768 0.857472
-8.86663 2.31312 11.0256 0.229696 0.381362 0.895434
-8.71578 1.76634 11.218 0.168614 0.339513 0.925365
-8.36572 2.03509 10.9535 0.499598 0.417911 0.758783
-8.23896 1.55356 11.1472 0.420411 0.415888 0.806407
-8.2962 1.17733 11.3386 0.284284 0.359284 0.888874
-8.06326 1.37154 11.1411 0.50792 0.423266 0.750242
-7.99063 1.00407 11.2851 0.42187 0.378546 0.82385
-7.94683 1.21598 11.1469 0.587088 0.423384 0.689981
-7.74914 0.798873 11.2253 0.578892 0.400392 0.710331
-7.34574 0.405393 11.0669 0.747957 0.403864 0.526739
-7.47203 1.06695 10.714 0.752928 0.409695 0.515024
-7.55188 0.709823 11.094 0.663074 0.418217 0.620828
-7.16779 0.578712 10.6244 0.813509 0.391014 0.430478
-7.20645 0.951925 10.359 0.827059 0.371799 0.421591
-7.12505 0.142962 10.9377 0.794194 0.384795 0.470307
-6.95271 0.401786 10.3264 0.870296 0.352897 0.343582
-6.9451 0.017911 10.6934 0.860038 0.344472 0.376395
-7.02123 -0.240156 11.0588 0.818074 0.324051 0.475128
-6.96308 -0.875587 11.2283 0.668206 0.145399 0.72963
-7.11595 -0.682692 11.3182 0.610499 0.145563 0.778526
-7.01806 -1.6323 11.3342 0.439505 0.0026722 0.898236
-6.83092 -2.23951 11.222 0.504961 -0.0317203 0.862559
-6.81436 -1.67284 11.2161 0.586076 0.0514219 0.808623
-6.68892 -2.84655 11.0823 0.642965 -0.0602697 0.76352
-6.81054 -2.77659 11.1724 0.543638 -0.0616861 0.83705
-6.81557 -3.16693 11.1393 0.475959 -0.100768 0.873676
-6.95106 -2.61713 11.2631 0.439649 -0.0754273 0.894997
-6.63196 -2.52231 11.0592 0.650526 -0.042476 0.758295
-6.55555 -2.73677 10.9541 0.794654 -0.0323692 0.606199
-6.50408 -3.31887 10.8573 0.839871 -0.0977719 0.533908
-6.52566 -3.01839 10.9096 0.792938 -0.0310243 0.608512
-5.99152 -3.12515 9.46822 0.958801 0.0152618 0.283667
-5.93847 -2.38046 9.18621 0.959083 0.0728693 0.273588
-6.19439 -2.00324 9.96239 0.952708 0.0595555 0.297995
-5.88623 -2.58558 8.99769 0.982101 0.0269298 0.186419
-5.90666 -2.05537 8.5826 0.989869 0.138705 -0.0303188
-5.97635 -3.25536 9.29447 0.99059 -0.107496 0.0847131
-5.87477 -2.52256 8.8079 0.95862 -0.168321 -0.229599
-6.15304 -1.63213 7.7452 0.850248 -0.176057 -0.496066
-6.04313 -1.85625 8.06585 0.889044 -0.172433 -0.424107
-6.1395 -0.57618 7.97721 0.966485 0.254313 0.0350802
-6.27527 -1.82864 7.64293 0.754338 -0.303281 -0.582233
-6.20176 -0.721435 7.45202 0.940018 -0.0340253 -0.339423
-6.29593 -0.95284 7.27063 0.855548 -0.170085 -0.488988
-6.58494 -0.643875 6.69738 0.72938 -0.277204 -0.62543
-6.85145 -0.536036 6.34583 0.648933 -0.314186 -0.692946
-7.04724 0.0811361 5.89293 0.657605 -0.349206 -0.667541
-7.15577 1.32848 5.06359 0.614289 -0.384844 -0.688872
-7.19248 0.620447 5.43759 0.531721 -0.458845 -0.711853
-7.39932 1.4454 4.81054 0.574081 -0.367694 -0.731596
-7.45077 0.981209 5.02512 0.492149 -0.421212 -0.761821
-7.98439 0.621263 4.98709 0.348496 -0.487291 -0.800686
-8.58984 1.34969 4.54178 0.00946257 -0.265365 -0.964102
-9.00174 1.30131 4.56155 -0.0868645 -0.340998 -0.936042
-8.7813 0.602143 4.82658 -0.00890911 -0.393529 -0.919269
-9.31916 0.568782 4.86716 -0.135362 -0.339028 -0.930987
-9.03506 0.556532 4.84619 -0.0077526 -0.375815 -0.926662
-10.0597 0.528803 5.12094 -0.441187 -0.169765 -0.881212
-10.4473 0.0357422 5.4127 -0.386053 -0.178335 -0.905074
-11.055 -0.2744 5.79515 -0.699055 0.181206 -0.691727
-11.3541 -0.774227 5.99799 -0.685507 0.104157 -0.720577
-11.6417 -0.635813 6.33187 -0.743258 0.164245 -0.64853
-11.6497 -0.35039 6.42027 -0.745187 0.209833 -0.632982
-11.5795 0.0363798 6.49348 -0.764937 0.275072 -0.582415
-11.3318 -0.0328114 6.16906 -0.72444 0.228223 -0.650462
-11.7856 -0.0551755 6.72968 -0.789366 0.306827 -0.53175
-11.2732 0.47129 6.31104 -0.770316 0.319351 -0.551931
-12.1956 0.153154 7.65649 -0.848204 0.342029 -0.404434
-11.8614 0.0262924 6.90918 -0.81567 0.366268 -0.447806
-12.158 -0.341003 7.16689 -0.843264 0.329574 -0.424602
-12.0746 -0.364596 7.0003 -0.823733 0.279166 -0.493489
-12.382 -0.776283 7.33263 -0.848238 0.228898 -0.477595
-12.0907 1.30324 8.52164 -0.907553 0.355716 -0.223188
-11.9715 1.65863 8.59917 -0.929447 0.328175 -0.168609
-11.9216 1.57127 8.29127 -0.911191 0.298904 -0.283528
-12.0673 0.704604 7.863 -0.826988 0.353358 -0.437298
-11.9664 1.17358 8.04778 -0.855164 0.324698 -0.40406
-11.6963 1.162 7.50287 -0.868064 0.248956 -0.429517
-11.8508 1.46974 8.0071 -0.895086 0.242015 -0.3745
-11.6859 0.767297 7.22459 -0.811639 0.351222 -0.466782
-12.6331 -0.513438 8.27975 -0.951109 0.263769 -0.16068
-12.4249 0.257939 8.36818 -0.934201 0.284439 -0.215322
-12.4337 -0.143013 7.96319 -0.896834 0.308471 -0.317071
-12.2633 0.903381 8.56994 -0.928614 0.323938 -0.180941
-12.1293 1.06423 8.33665 -0.883369 0.344167 -0.318132
-12.2858 0.64052 8.31525 -0.902692 0.323744 -0.28344
-12.2105 0.601743 8.07144 -0.867116 0.334605 -0.368985
-12.3366 0.336366 8.15162 -0.903928 0.305239 -0.299572
-12.5222 -0.0270348 8.65094 -0.973507 0.227202 0.025753
-12.2884 0.64849 9.23371 -0.927312 0.184865 0.325449
-12.1442 0.805502 9.49524 -0.865109 0.179324 0.468432
-11.9734 0.932281 9.71525 -0.793778 0.191826 0.577165
-11.7705 0.788842 9.97641 -0.717041 0.117891 0.686989
-11.9477 0.676212 9.80233 -0.768872 0.11076 0.629736
-11.6925 1.07876 10.0035 -0.718897 0.20251 0.664964
-11.4886 0.907661 10.2371 -0.665834 0.108157 0.738219
-11.4794 1.59125 10.0432 -0.704482 0.236898 0.669017
-11.413 1.24392 10.2303 -0.652264 0.203031 0.730295
-11.7043 1.47808 9.83306 -0.745453 0.262725 0.612598
-11.5035 1.82724 9.92628 -0.747653 0.249105 0.615599
-11.4919 2.07622 9.84775 -0.792567 0.226077 0.566328
-11.3334 2.361 9.94803 -0.728192 0.230487 0.645454
-11.0519 1.77292 10.3787 -0.602737 0.198118 0.772954
-10.9794 2.28918 10.3016 -0.606236 0.238189 0.758778
-11.278 1.9771 10.1279 -0.681567 0.216018 0.699144
-11.2553 1.66393 10.2379 -0.646838 0.217505 0.730953
-11.3366 0.91058 10.3629 -0.597756 0.117324 0.793046
-10.6811 0.55821 10.8266 -0.464909 0.0311782 0.884809
-10.7909 0.898602 10.7333 -0.510951 0.129291 0.849831
-10.8848 0.577251 10.7089 -0.527565 0.049335 0.848081
-9.94081 0.652476 11.1581 -0.373192 0.000808834 0.927754
-10.507 0.241506 10.9118 -0.409895 0.00113327 0.912132
-8.82105 0.775171 11.4764 -0.109506 0.100182 0.988925
-9.09419 0.280757 11.452 -0.240763 0.0277172 0.970188
-8.77001 0.481489 11.5043 -0.127591 0.0772819 0.988811
-9.03311 1.11296 11.4114 -0.118365 0.183012 0.975959
-8.9833 1.85775 11.2162 0.0414851 0.314537 0.948338
-8.62892 1.11184 11.4253 0.0643154 0.252401 0.965483
-8.40292 1.00692 11.4285 0.140757 0.248375 0.958383
-8.21308 0.513217 11.5107 0.12595 0.199856 0.971697
-8.49115 0.654746 11.5053 0.00160864 0.143337 0.989673
-8.13834 0.79464 11.4308 0.254605 0.275242 0.927048
-7.62295 0.296755 11.3928 0.536542 0.369152 0.758847
-7.51794 0.0531441 11.4201 0.397428 0.179697 0.899867
-7.3971 0.160253 11.2848 0.640126 0.375109 0.670472
-7.14489 -0.208086 11.2159 0.732727 0.301188 0.610243
-7.13377 -1.07593 11.3746 0.490095 0.0752755 0.868413
-7.28057 -1.02746 11.4445 0.395589 0.0319654 0.917871
-7.41652 -1.14804 11.499 0.30415 -0.013888 0.952523
-7.49436 -0.629253 11.5045 0.33369 0.0887482 0.938496
-7.13761 -1.78924 11.3835 0.34719 -0.0364522 0.937086
-7.33663 -1.84745 11.4431 0.249942 -0.051193 0.966906
-7.10609 -2.52868 11.3385 0.336907 -0.060671 0.939581
-7.05842 -3.05904 11.2669 0.370351 -0.10032 0.923459
-6.86594 -3.70465 11.0903 0.480013 -0.160786 0.862401
-6.7986 -4.07264 10.9532 0.570192 -0.263254 0.77819
-6.67652 -3.77664 10.9508 0.613087 -0.189429 0.766969
-6.83302 -4.47237 10.8146 0.585336 -0.369403 0.72175
-6.79233 -4.81067 10.5455 0.640174 -0.518487 0.566876
-6.69278 -4.50225 10.6478 0.704549 -0.377193 0.601113
-8.17686 -4.38821 11.0363 -0.240216 -0.305353 0.921442
-8.79376 -4.29278 10.8897 -0.244664 -0.27143 0.930841
-8.59219 -4.54823 10.8669 -0.241382 -0.295715 0.924277
-6.59672 -3.96861 10.8101 0.719986 -0.249729 0.6475
-6.55773 -3.65018 10.861 0.801549 -0.150819 0.578595
-6.67012 -3.3569 11.0257 0.630259 -0.102796 0.769549
-6.35987 -3.55176 10.5283 0.905361 -0.0958964 0.413673
-6.38889 -3.87143 10.5011 0.884583 -0.148991 0.441944
-6.38864 -4.41299 9.72608 0.815977 -0.522431 -0.247482
-6.3631 -4.1037 9.38972 0.713518 -0.531443 -0.456575
-6.11076 -3.67685 9.31995 0.926232 -0.329751 -0.182641
-6.11942 -3.87309 9.58924 0.850183 -0.450362 -0.272697
-6.14879 -3.57094 9.12374 0.824192 -0.435628 -0.361852
-5.97048 -2.98049 8.83103 0.858523 -0.356813 -0.36827
-6.04334 -3.2705 8.98563 0.757836 -0.487132 -0.434036
-6.33576 -3.49772 8.83769 0.628855 -0.557683 -0.541785
-6.12625 -2.84793 8.41254 0.691686 -0.479253 -0.540265
-6.30076 -3.22167 8.58048 0.536679 -0.604615 -0.588571
-5.94637 -2.43814 8.50304 0.866911 -0.257927 -0.426543
-6.26416 -2.27301 7.8876 0.646103 -0.423146 -0.635215
-6.35476 -2.67983 8.06899 0.53477 -0.508992 -0.674499
-6.49221 -2.10609 7.54266 0.577239 -0.476687 -0.662997
-6.74072 -2.6465 7.75766 0.477811 -0.564203 -0.673329
-6.57792 -1.35628 7.03117 0.686525 -0.333961 -0.645874
-6.85254 -1.55069 6.88352 0.600033 -0.408756 -0.687661
-6.45777 -1.0987 7.0641 0.752723 -0.266858 -0.601826
-7.04859 -0.616201 6.21884 0.538139 -0.36611 -0.75919
-7.1493 -0.821368 6.25747 0.523476 -0.401905 -0.751295
-7.32528 -0.207793 5.83951 0.480073 -0.390155 -0.78569
-7.3933 0.475404 5.38717 0.525901 -0.461817 -0.71425
-7.31127 -0.771865 6.12296 0.461191 -0.411668 -0.786023
-7.73864 -0.517402 5.77725 0.413075 -0.394094 -0.821011
-7.60174 -0.01555 5.58071 0.427148 -0.433946 -0.793243
-7.8725 0.311055 5.22177 0.369494 -0.505134 -0.779945
-8.12468 -0.0722995 5.35667 0.360688 -0.47771 -0.80106
-8.56815 0.223373 5.0335 0.210335 -0.406941 -0.888908
-8.93525 0.107824 5.03013 0.133553 -0.399706 -0.906862
-11.0847 -0.642439 5.78964 -0.513181 -0.0981715 -0.852647
-11.5443 -1.02377 6.14399 -0.697858 0.0791577 -0.711849
-11.2682 -0.913307 5.92652 -0.557618 -0.0665684 -0.827424
-11.7139 -1.37971 6.2828 -0.719494 0.0313456 -0.693791
-11.5015 -1.24445 6.12294 -0.534477 -0.1204 -0.836563
-12.3545 -1.06688 7.16662 -0.841155 0.175111 -0.511659
-12.087 -0.824034 6.83696 -0.791897 0.152187 -0.591386
-12.3595 -1.31722 7.11283 -0.828185 0.0876678 -0.553556
-12.006 -0.488043 6.83335 -0.798799 0.21556 -0.561653
-12.5733 -1.08539 7.54597 -0.892577 0.214155 -0.396792
-12.6323 -1.41944 7.54178 -0.874011 0.103577 -0.474738
-12.7048 -1.26847 7.80214 -0.949564 0.157333 -0.271247
-12.7676 -1.5284 7.95569 -0.982821 0.073553 -0.169273
-12.6851 -1.53268 7.64481 -0.935924 0.0263478 -0.351215
-12.7449 -1.89461 7.82369 -0.967447 -0.0467801 -0.248711
-12.7184 -1.0143 8.08325 -0.967449 0.189127 -0.168146
-12.6058 -0.554224 8.08567 -0.933952 0.273199 -0.230424
-12.6696 -0.640549 8.51395 -0.976883 0.207011 0.0533449
-12.538 -0.141315 8.77598 -0.969863 0.19767 0.142453
-12.6053 -0.485013 8.76902 -0.968431 0.172173 0.18027
-12.5854 -1.34629 9.1111 -0.884558 0.0237497 0.465825
-12.4265 -0.960562 9.3562 -0.854356 0.0459967 0.517648
-12.4962 -0.759754 9.19852 -0.897592 0.0841379 0.432723
-12.3109 -0.971083 9.52841 -0.80296 0.0175898 0.595773
-12.2672 -0.577727 9.56559 -0.809392 0.0651928 0.583639
-12.3108 0.357877 9.29328 -0.911565 0.142351 0.385726
-12.3473 -0.037865 9.33773 -0.90146 0.118663 0.416279
-12.2552 0.0198725 9.49271 -0.853616 0.102625 0.510694
-12.095 1.14958 9.39505 -0.874067 0.302817 0.379879
-11.6449 0.441788 10.1511 -0.662696 0.0699313 0.745617
-11.3593 0.38746 10.3913 -0.613392 0.0515772 0.788092
-11.5834 -0.0179232 10.2325 -0.634014 0.0370023 0.772436
-11.397 -0.217725 10.3844 -0.58926 0.0182464 0.807737
-11.1178 -0.152408 10.5727 -0.54558 0.0127642 0.837962
-11.0912 0.556488 10.5752 -0.560347 0.0423942 0.827172
-11.2509 0.139926 10.4761 -0.56862 0.021949 0.822308
-11.0824 0.872846 10.545 -0.555177 0.107586 0.824744
-10.8977 0.0302491 10.7059 -0.509354 0.00956688 0.860504
-10.6482 -0.862948 10.837 -0.458476 -0.0378021 0.887902
-10.4337 -0.863188 10.9393 -0.423644 -0.0311783 0.905292
-10.631 -0.294188 10.8574 -0.444627 -0.00236743 0.895713
-9.96221 0.0339647 11.1421 -0.36433 -0.0117109 0.931196
-10.2777 0.215476 11.0114 -0.38881 -0.00432985 0.921308
-10.1819 -0.602027 11.0549 -0.373534 -0.00716492 0.927589
-9.51598 0.0935856 11.3161 -0.336439 -0.00813193 0.94167
-9.55857 0.403518 11.301 -0.330898 -0.0038901 0.943658
-8.99136 -0.264583 11.4879 -0.269199 -0.011166 0.96302
-8.62253 -0.000683345 11.5586 -0.149008 0.0487581 0.987633
-8.40611 0.085736 11.574 -0.0376605 0.0849846 0.99567
-8.09826 0.165376 11.5621 0.112429 0.139587 0.983807
-8.87621 1.52935 11.3185 0.0181617 0.273162 0.961797
-7.80657 0.316486 11.4716 0.274047 0.216056 0.937133
-7.82808 -0.102833 11.5456 0.227048 0.108031 0.967873
-7.34839 -0.426488 11.4184 0.457014 0.122631 0.880965
-7.74983 -0.580862 11.5679 0.167197 0.0573851 0.984252
-7.63099 -0.901549 11.5527 0.190381 -0.00848508 0.981674
-7.34056 -2.43308 11.4074 0.199906 -0.0715081 0.977202
-7.57949 -1.91489 11.4885 0.140824 -0.0663121 0.987811
-7.21031 -3.51989 11.2586 0.271817 -0.14189 0.951831
-7.04929 -3.33905 11.2299 0.370277 -0.124477 0.920543
-7.32119 -2.9786 11.3605 0.224301 -0.103902 0.968965
-7.03973 -4.01336 11.1111 0.392326 -0.232059 0.890073
-7.03676 -3.77128 11.1567 0.347371 -0.161776 0.923668
-7.31293 -3.82635 11.2355 0.172778 -0.186602 0.967123
-7.20495 -4.17 11.123 0.254317 -0.252307 0.933629
-7.72093 -4.28557 11.1475 -0.0558928 -0.261904 0.963474
-7.62439 -3.85847 11.2565 0.0117013 -0.206354 0.978408
-7.90589 -3.87085 11.2395 -0.135981 -0.232306 0.96309
-7.58585 -4.50642 11.0883 0.0195703 -0.328038 0.944462
-7.47572 -4.03143 11.2125 0.0927163 -0.243351 0.965497
-7.95292 -4.24314 11.132 -0.172246 -0.276383 0.945486
-7.8409 -4.57268 11.0462 -0.161891 -0.351735 0.921994
-7.35116 -4.427 11.0915 0.185979 -0.294505 0.937379
-7.11737 -4.43784 11.0067 0.416101 -0.328537 0.847894
-7.24899 -4.57305 11.0042 0.345664 -0.392313 0.852412
-7.19397 -4.82092 10.8537 0.346224 -0.500366 0.793576
-7.39792 -4.75278 10.9732 0.173203 -0.452486 0.874789
-7.03911 -4.71485 10.8336 0.509062 -0.458002 0.728759
-7.20008 -4.98427 10.7345 0.446761 -0.595508 0.667664
-6.95204 -4.9399 10.5843 0.550021 -0.592799 0.588275
-6.68719 -4.68929 10.5015 0.743057 -0.441794 0.502677
-6.36433 -4.39264 10.1718 0.877124 -0.366533 0.310335
-6.28346 -4.28213 9.94058 0.933638 -0.322458 0.156016
-6.28637 -4.16598 10.1421 0.914604 -0.2094 0.345905
-6.47366 -4.5964 9.88259 0.759643 -0.633137 -0.148596
-6.39368 -4.50009 10.0528 0.834142 -0.549501 0.0474962
-6.20119 -4.06911 9.69527 0.918892 -0.392814 -0.0365358
-6.69415 -4.80386 9.87289 0.588449 -0.754779 -0.289889
-6.71763 -4.7263 9.67484 0.503463 -0.712647 -0.488527
-7.02258 -4.98592 9.81829 0.457079 -0.778833 -0.429533
-6.70771 -4.58347 9.54457 0.52847 -0.612148 -0.588213
-6.45137 -3.84476 9.05494 0.446663 -0.584745 -0.677175
-6.47872 -4.28129 9.4383 0.486075 -0.586601 -0.647789
-6.6243 -2.89469 8.0545 0.41492 -0.611677 -0.673567
-6.82543 -2.17318 7.31684 0.522378 -0.502133 -0.689191
-6.93427 -1.22146 6.6317 0.59331 -0.388283 -0.705138
-7.93513 -0.157241 5.50269 0.393192 -0.438024 -0.808415
-8.2355 -0.612039 5.5988 0.40613 -0.437094 -0.8025
-8.43399 -0.0806681 5.21622 0.276328 -0.419402 -0.864722
-8.80152 -0.155439 5.15311 0.226916 -0.39085 -0.892045
-10.0725 -0.0423979 5.26977 -0.296771 -0.244458 -0.923129
-10.2334 -0.67933 5.50308 -0.228224 -0.289481 -0.929578
-11.0582 -1.0572 5.85637 -0.423389 -0.210327 -0.881195
-10.8044 -0.381294 5.62109 -0.382345 -0.157348 -0.910524
-10.4764 -0.617986 5.54794 -0.257264 -0.260443 -0.930583
-10.9013 -1.43492 5.91811 -0.30904 -0.30468 -0.900924
-10.5987 -1.14898 5.73738 -0.249336 -0.294442 -0.92257
-11.4101 -1.578 6.15453 -0.390971 -0.264418 -0.881604
-11.6873 -1.62179 6.30597 -0.516286 -0.198377 -0.833124
-12.2124 -1.55888 6.87263 -0.810541 0.0273059 -0.585045
-11.9402 -1.6942 6.52314 -0.755216 -0.00282104 -0.65547
-12.2529 -2.00157 6.93431 -0.813782 -0.0590594 -0.578161
-12.5348 -1.80619 7.34789 -0.855027 -0.0116792 -0.518451
-12.4953 -2.33138 7.35507 -0.87058 -0.0995868 -0.481843
-12.681 -1.95037 7.65024 -0.913831 -0.0808111 -0.397973
-12.6338 -2.6513 7.74469 -0.905837 -0.178365 -0.384247
-12.4476 -2.50329 7.3227 -0.81838 -0.193404 -0.541155
-12.516 -3.00548 7.68098 -0.827149 -0.295574 -0.477976
-12.7377 -2.5727 8.44997 -0.989759 -0.0988726 0.102963
-12.7704 -2.30284 8.10038 -0.989237 -0.102184 -0.104734
-12.7165 -2.84565 8.31029 -0.987561 -0.152454 -0.0384885
-12.7904 -2.137 8.37742 -0.995654 -0.065856 0.0658506
-12.7998 -1.71395 8.25097 -0.998337 0.0406724 0.0408631
-12.7679 -1.20192 8.21453 -0.993617 0.106234 -0.0379428
-12.6586 -0.945705 7.88777 -0.931719 0.233667 -0.278029
-12.745 -1.48157 8.64133 -0.982851 0.0406826 0.179856
-12.7404 -1.0643 8.53835 -0.987856 0.0953453 0.122675
-12.7794 -1.88995 8.53466 -0.979873 -0.0156155 0.199011
-12.7088 -1.74586 8.79085 -0.951035 -0.0056593 0.309033
-12.6655 -0.84664 8.765 -0.960327 0.136542 0.243164
-12.4897 -0.152974 9.01432 -0.953839 0.157016 0.256
-12.5087 -0.467243 9.09464 -0.926247 0.119006 0.357636
-12.3775 -0.40832 9.35851 -0.873721 0.0875749 0.47848
-12.6684 -1.22456 8.90852 -0.945086 0.0656257 0.320164
-12.4385 -1.61274 9.36195 -0.831462 -0.0179036 0.555293
-12.2621 -1.32809 9.5969 -0.777117 -0.0102262 0.629273
-12.0516 0.00636167 9.77199 -0.769387 0.0713493 0.634785
-12.0042 -0.459565 9.87127 -0.738307 0.0495566 0.672641
-11.9221 0.159116 9.90465 -0.742075 0.0782793 0.66573
-11.6219 -0.518616 10.2188 -0.619896 0.012659 0.784582
-11.8364 -0.238904 10.0271 -0.676632 0.0440681 0.735001
-11.8772 -0.667921 10.006 -0.678728 0.0226487 0.73404
-12.0847 -1.07273 9.81265 -0.729777 -0.000753514 0.683685
-11.9245 -2.60321 9.78609 -0.623178 -0.142674 0.768956
-11.946 -2.0242 9.8676 -0.628859 -0.107518 0.770049
-12.0892 -2.59576 9.64815 -0.666824 -0.132718 0.733302
-11.8071 -3.04554 9.79236 -0.600348 -0.154479 0.784678
-11.7548 -3.41472 9.75482 -0.557007 -0.183867 0.809899
-11.6448 -2.97637 9.9218 -0.544257 -0.1675 0.822027
-11.2968 -1.60528 10.3821 -0.540584 -0.119915 0.8327
-11.1976 -1.24784 10.489 -0.544908 -0.073832 0.835239
-11.6313 -1.60632 10.1591 -0.566471 -0.111064 0.816563
-11.7157 -1.35343 10.1311 -0.595912 -0.063716 0.800518
-11.3064 -0.506264 10.4493 -0.566989 -0.00432426 0.823714
-10.9476 -0.598859 10.6857 -0.509301 -0.0141366 0.860472
-11.4483 -0.805785 10.3445 -0.58019 -0.0235465 0.814141
-11.186 -0.752252 10.5243 -0.551259 -0.0430332 0.833224
-10.8081 -1.44002 10.7096 -0.494215 -0.116689 0.861473
-10.8971 -1.13036 10.6855 -0.504095 -0.0582621 0.861681
-10.5382 -1.2405 10.8676 -0.440226 -0.074086 0.894825
-10.2207 -1.31279 11.0072 -0.373829 -0.0908949 0.923033
-10.2544 -1.01424 11.0143 -0.358823 -0.0526473 0.93192
-9.35632 -0.875762 11.3373 -0.323797 -0.0750767 0.943143
-9.67243 -1.06436 11.2136 -0.322604 -0.0721099 0.943783
-9.11567 -1.25844 11.3823 -0.296098 -0.109784 0.948827
-9.26367 -0.547022 11.3962 -0.335933 -0.0307617 0.941384
-8.3748 -0.331428 11.5929 -0.0787458 0.00867764 0.996857
-8.78396 -0.113034 11.5346 -0.185334 0.0143417 0.982571
-8.14943 -0.287482 11.5947 0.054764 0.0434191 0.997555
-6.63613 -2.15091 11.0733 0.708663 0.0084282 0.705497
-7.75234 -2.7895 11.4275 -0.00466839 -0.116971 0.993124
-7.68899 -2.32814 11.4727 0.0832858 -0.0877108 0.992658
-7.99713 -2.35428 11.4753 -0.0806672 -0.123759 0.989028
-7.42405 -3.37186 11.3277 0.140523 -0.148092 0.978939
-7.7266 -3.332 11.3592 0.00787671 -0.161582 0.986828
-7.63328 -3.06471 11.3932 0.0952965 -0.120985 0.988069
-7.93583 -2.73731 11.4282 -0.102542 -0.132028 0.985928
-8.02936 -2.91074 11.3974 -0.107121 -0.139606 0.984396
-8.26151 -3.04995 11.3364 -0.21096 -0.161069 0.964133
-7.97494 -3.25587 11.3485 -0.129897 -0.166083 0.977519
-7.85091 -3.59827 11.3025 -0.0857428 -0.191366 0.977766
-8.08231 -3.4839 11.2907 -0.179752 -0.192063 0.96478
-8.62457 -2.80501 11.2758 -0.275844 -0.165817 0.946792
-8.35322 -3.30972 11.267 -0.272255 -0.187495 0.943781
-8.24587 -3.98814 11.1403 -0.245585 -0.264106 0.932704
-8.27471 -3.75588 11.1926 -0.25944 -0.2188 0.940647
-8.75179 -4.01443 10.9803 -0.280604 -0.236998 0.930104
-7.72847 -4.84268 10.9436 -0.0681445 -0.437248 0.896756
-8.0246 -4.9078 10.8615 -0.178208 -0.41073 0.894171
-7.81489 -5.18823 10.7334 -0.0414385 -0.614819 0.787579
-8.00948 -5.16261 10.7295 -0.127137 -0.554827 0.822194
-6.9961 -5.08464 10.4162 0.61777 -0.718792 0.318902
-7.15429 -5.17126 10.51 0.466032 -0.732264 0.496592
-6.81367 -4.94682 10.3583 0.688678 -0.673592 0.268323
-6.5884 -4.74803 10.1654 0.756129 -0.649187 0.082618
-6.69899 -4.79869 10.3961 0.747047 -0.574609 0.334284
-6.85694 -5.01085 10.2499 0.633257 -0.773942 -0.000429576
-7.08365 -5.16533 10.3246 0.568958 -0.811035 0.136048
-7.20365 -5.25776 10.2298 0.539477 -0.833952 -0.116137
-6.96622 -5.062 10.1049 0.568852 -0.796051 -0.206663
-6.99885 -5.02597 9.92591 0.523258 -0.792507 -0.313264
-6.64928 -4.81283 10.0654 0.657583 -0.7427 -0.126415
-6.57784 -4.70143 10.2781 0.811468 -0.516469 0.273459
-7.02919 -4.91543 9.70658 0.342681 -0.719889 -0.603597
-7.26698 -5.13883 9.85509 0.391912 -0.752847 -0.528798
-7.34251 -5.01954 9.66845 0.316993 -0.680359 -0.660778
-6.7637 -4.42114 9.36386 0.327723 -0.60588 -0.724919
-6.78127 -4.16008 9.13652 0.370746 -0.602254 -0.706991
-6.49193 -3.65827 8.8723 0.349551 -0.59829 -0.721016
-6.81755 -3.88606 8.89984 0.213823 -0.597926 -0.772505
-7.05017 -3.65504 8.65446 0.209651 -0.611927 -0.762622
-6.87353 -3.31515 8.38644 0.269431 -0.716448 -0.643514
-6.61447 -3.22772 8.4021 0.292565 -0.687791 -0.664342
-6.42051 -4.20262 10.4215 0.869875 -0.232753 0.434907
-6.04179 -1.24902 8.01085 0.984606 0.0467185 -0.16843
-7.31123 -2.43053 7.19749 0.428226 -0.606134 -0.670241
-7.03072 -1.74945 6.87536 0.498307 -0.463136 -0.732936
-7.176 -1.92846 6.89341 0.461429 -0.513557 -0.723424
-7.64264 -0.292414 5.71531 0.41281 -0.392083 -0.822106
-7.3329 -1.03734 6.25258 0.436961 -0.419436 -0.7957
-8.01762 -0.910645 5.83814 0.355911 -0.395425 -0.846739
-8.51871 -1.20575 5.76505 0.257503 -0.446653 -0.856851
-8.32636 -1.51555 5.9935 0.342585 -0.485795 -0.804138
-8.60381 -3.82767 8.19734 0.236695 -0.741121 -0.628263
-8.84225 -3.94185 8.20502 0.289999 -0.625641 -0.724206
-9.47763 -3.7965 7.84511 0.13991 -0.693809 -0.706438
-8.80765 -2.16176 6.29374 0.137779 -0.651262 -0.746241
-8.95945 -1.8313 6.00559 0.137994 -0.49272 -0.859177
-7.97592 -0.638686 5.73073 0.375308 -0.400026 -0.836136
-9.04102 -1.30891 5.7006 0.135626 -0.492415 -0.859729
-8.64242 -0.403326 5.3056 0.368806 -0.440765 -0.818357
-9.06912 -0.529141 5.27891 0.0845217 -0.426574 -0.900494
-9.42271 -0.0540561 5.11756 -0.120812 -0.355266 -0.926925
-6.75229 4.70447 4.46669 0.774211 -0.293319 -0.560857
-9.42461 -1.08135 5.54544 -0.0633801 -0.427991 -0.901558
-9.46912 -0.527594 5.30497 -0.129479 -0.368858 -0.920423
-9.84492 -0.776823 5.466 -0.171874 -0.343281 -0.923373
-9.7148 -0.155572 5.21205 -0.181603 -0.336849 -0.92388
-10.6381 -1.91774 6.0752 -0.0690793 -0.493504 -0.866996
-10.6313 -2.23597 6.25374 -0.0869635 -0.543472 -0.83491
-10.8524 -2.1762 6.25044 -0.149543 -0.502036 -0.85182
-10.6394 -1.56207 5.89988 -0.147172 -0.375997 -0.914859
-11.0122 -2.05955 6.21663 -0.205833 -0.455384 -0.866175
-11.5273 -2.46089 6.57813 -0.235658 -0.497081 -0.83509
-11.2587 -2.03327 6.26959 -0.2565 -0.429498 -0.865875
-11.3058 -2.4551 6.51235 -0.197021 -0.515359 -0.834019
-11.5896 -2.28335 6.4995 -0.331303 -0.415038 -0.847338
-11.3599 -1.83727 6.21995 -0.338368 -0.337203 -0.878522
-11.7298 -2.0073 6.44337 -0.452583 -0.288857 -0.843641
-11.1146 -1.7687 6.11445 -0.260085 -0.37271 -0.890754
-12.1836 -2.77254 7.06262 -0.691537 -0.322132 -0.646534
-12.1646 -2.53445 6.95528 -0.715637 -0.2292 -0.659796
-11.9934 -2.58063 6.84015 -0.495533 -0.370363 -0.78567
-12.0877 -2.14621 6.74402 -0.764435 -0.163087 -0.623733
-11.9701 -2.1833 6.65709 -0.555412 -0.287126 -0.780433
-12.0125 -1.93305 6.62203 -0.655821 -0.149247 -0.740016
-12.2998 -2.92499 7.30219 -0.771473 -0.315353 -0.552614
-12.0923 -3.7003 7.63433 -0.512511 -0.540295 -0.667394
-12.292 -3.24253 7.49529 -0.732126 -0.396436 -0.553922
-12.1548 -3.36855 7.43823 -0.58997 -0.481386 -0.648231
-12.6281 -3.19053 8.08711 -0.947906 -0.235545 -0.214459
-12.5223 -3.35443 7.94455 -0.869379 -0.308526 -0.385994
-12.6689 -2.9576 8.0771 -0.969792 -0.165261 -0.179424
-12.6314 -3.26356 8.38274 -0.965214 -0.261192 0.0118789
-12.6906 -2.94652 8.51429 -0.978209 -0.171029 0.11771
-12.6222 -2.6468 8.9109 -0.930303 -0.0738458 0.359282
-12.5939 -2.04918 9.05352 -0.894681 -0.0472253 0.444201
-12.6711 -2.10945 8.87573 -0.941201 -0.041269 0.335316
-12.5392 -2.77526 9.07776 -0.871109 -0.104779 0.479782
-12.47 -3.14186 9.07278 -0.847739 -0.180203 0.498864
-12.3275 -3.11303 9.30266 -0.764307 -0.166232 0.623059
-12.5619 -3.14831 8.88653 -0.912961 -0.200479 0.355401
-12.335 -3.43039 9.17949 -0.800262 -0.233452 0.552341
-12.3439 -3.6823 9.03012 -0.835772 -0.301772 0.458714
-12.2206 -3.67343 9.21821 -0.785855 -0.281108 0.550826
-12.1014 -2.19239 9.69866 -0.703229 -0.101117 0.703736
-12.1219 -3.99359 9.19607 -0.78642 -0.318898 0.529006
-12.2348 -4.03432 8.97306 -0.833439 -0.384192 0.39721
-11.9823 -4.24811 9.22046 -0.737035 -0.440253 0.512793
-12.0219 -4.0243 9.30869 -0.688499 -0.315386 0.653071
-11.8313 -4.52603 9.13826 -0.702957 -0.606396 0.371665
-11.7729 -4.48662 9.28127 -0.66848 -0.556823 0.493034
-11.4725 -4.8337 9.23624 -0.603009 -0.714938 0.353898
-11.4751 -4.74631 9.3665 -0.611212 -0.588252 0.529509
-11.3036 -4.97019 9.16946 -0.527981 -0.826918 0.193502
-11.6372 -4.76978 9.04253 -0.615288 -0.757652 0.217679
-8.67302 -5.3249 9.2832 0.221142 -0.785453 -0.578066
-8.43478 -5.32562 9.39634 0.287672 -0.782084 -0.552802
-8.65555 -5.41437 9.43551 0.180315 -0.85345 -0.488989
-10.868 -5.17217 9.46185 -0.493546 -0.83758 0.234249
-10.8083 -5.10334 9.69314 -0.564113 -0.630413 0.533251
-11.0714 -5.00046 9.50884 -0.574213 -0.691758 0.437893
-11.6856 -4.42891 9.42695 -0.619051 -0.469193 0.629789
-11.188 -4.82591 9.58552 -0.588583 -0.537879 0.603537
-11.1995 -4.6551 9.70387 -0.582553 -0.448716 0.677707
-11.7082 -4.27185 9.50106 -0.632487 -0.354594 0.688639
-12.4307 -3.39737 9.03816 -0.872651 -0.244062 0.422982
-12.6136 -1.66043 9.03697 -0.918313 -0.0166528 0.395504
-10.1804 8.32916 7.0402 -0.888982 0.387398 0.244201
-10.0718 8.44831 7.19527 -0.841997 0.414916 0.344799
-9.99782 8.81888 6.88847 -0.880318 0.393522 0.264917
-12.533 -1.88103 9.18137 -0.873337 -0.034797 0.485872
-12.4894 -2.25585 9.21577 -0.836517 -0.0621713 0.544402
-12.1011 -1.67357 9.77119 -0.704896 -0.0589388 0.706857
-12.3176 -1.69666 9.51584 -0.774296 -0.0496436 0.630873
-12.3498 -2.21445 9.41961 -0.788108 -0.0709623 0.611433
-12.2221 -2.05446 9.58799 -0.743342 -0.08845 0.663038
-11.9947 -3.42732 9.56699 -0.652171 -0.177647 0.736963
-12.0502 -3.12007 9.57977 -0.658053 -0.152186 0.737432
-11.626 -3.65915 9.78221 -0.552815 -0.202488 0.808328
-11.8646 -3.77003 9.57426 -0.631415 -0.263509 0.7293
-10.963 -2.41471 10.4622 -0.512779 -0.138401 0.847291
-10.4732 -2.8016 10.692 -0.491707 -0.132449 0.860628
-10.652 -2.25114 10.6718 -0.479545 -0.129357 0.86793
-10.4617 -1.63135 10.8614 -0.423731 -0.118609 0.897989
-10.3599 -2.22865 10.8273 -0.426969 -0.118025 0.896531
-10.133 -2.12992 10.9377 -0.365006 -0.116286 0.923714
-9.84072 -2.23293 11.0237 -0.27739 -0.119947 0.95324
-9.97406 -2.63561 10.9348 -0.329294 -0.108945 0.937921
-8.40465 -2.2466 11.4276 -0.211267 -0.145868 0.966483
-8.80576 -1.96462 11.3711 -0.263679 -0.156487 0.951833
-8.69386 -2.44734 11.3173 -0.270448 -0.164989 0.948492
-8.29618 -2.66231 11.388 -0.200099 -0.144568 0.969051
-8.53998 -1.75003 11.4653 -0.205902 -0.126027 0.970423
-8.89571 -1.74453 11.3793 -0.283506 -0.144084 0.948084
-8.41336 -1.36626 11.5374 -0.140813 -0.0981826 0.985156
-8.76068 -1.32136 11.4703 -0.232692 -0.11132 0.966158
-8.70058 -1.03981 11.5088 -0.198282 -0.0811841 0.976777
-8.97593 -0.755364 11.474 -0.248018 -0.0675199 0.9664
-8.58233 -0.431253 11.5674 -0.16223 -0.0348194 0.986138
-8.19142 -0.759802 11.595 -0.0528837 -0.0356853 0.997963
-7.90367 -0.765913 11.5937 0.071053 -0.000282184 0.997473
-7.87508 -1.1169 11.5788 0.0516826 -0.0610883 0.996793
-8.25161 -1.15816 11.569 -0.0635323 -0.066623 0.995754
-8.5629 -0.862053 11.5487 -0.149096 -0.0561104 0.987229
-8.0146 -1.96861 11.5165 -0.0426112 -0.0895615 0.995069
-8.2768 -2.07989 11.474 -0.14465 -0.115744 0.98269
-8.30894 -1.68524 11.509 -0.110985 -0.0985834 0.98892
-7.99189 -1.51595 11.549 0.0110721 -0.0795786 0.996767
-7.59425 -2.67071 11.4311 0.129645 -0.0909564 0.98738
-7.81289 -1.89884 11.5142 0.0721849 -0.0666297 0.995163
-9.05233 -2.82452 11.1443 -0.26975 -0.165343 0.948629
-8.8889 -3.53569 11.0524 -0.274697 -0.20891 0.938562
-8.93646 -3.97132 10.9401 -0.213243 -0.226567 0.950365
-9.06451 -4.36207 10.8176 -0.162643 -0.250541 0.954346
-9.05644 -4.89314 10.6521 -0.210488 -0.395692 0.893937
-8.80105 -5.02358 10.6474 -0.195408 -0.395368 0.897497
-8.8398 -4.71172 10.7596 -0.188402 -0.304311 0.933756
-9.14794 -5.11777 10.5126 -0.246408 -0.494787 0.833348
-8.457 -5.1563 10.6553 -0.177575 -0.470054 0.86459
-8.08652 -5.36176 10.547 -0.0729858 -0.736536 0.672449
-8.698 -5.2427 10.5477 -0.173574 -0.612801 0.770939
-8.46286 -5.32892 10.5201 -0.132776 -0.712055 0.689455
-7.48218 -5.40974 10.1819 0.405266 -0.903961 -0.13643
