-18.5626 8.61399 -9.79866 0.473739 -0.00169447 -0.880664
-18.3623 10.0612 -9.62757 0.488855 0.0916754 -0.867535
-18.2262 9.6883 -9.57676 0.539022 0.0554743 -0.840463
-18.3056 10.6305 -9.53012 0.504057 0.116476 -0.85578
-17.9831 10.5662 -9.32293 0.58 0.100548 -0.808387
-18.2767 8.40044 -9.61241 0.560146 -0.0351823 -0.827646
-17.8353 9.32265 -9.25206 0.731033 -0.0363026 -0.681376
-18.0987 5.74351 -8.56867 0.956669 -0.123202 -0.263828
-18.184 5.32028 -8.77305 0.922084 0.0833777 -0.377901
-18.1913 5.57932 -7.40684 0.912388 0.031452 0.408115
-18.0973 5.54625 -7.69635 0.977207 -0.111165 0.180858
-18.1366 6.05543 -7.51904 0.923537 -0.0555123 0.37947
-18.1925 6.32985 -7.33439 0.864408 -0.0306818 0.501853
-27.4282 2.277 -4.55561 -0.957849 -0.142155 0.249636
-27.446 2.14332 -4.75023 -0.950716 -0.236777 0.200187
-27.2134 2.12938 -3.96801 -0.924216 -0.191102 0.330614
-27.3947 2.31578 -4.39625 -0.94119 -0.149729 0.302892
-27.1639 1.731 -4.12642 -0.899251 -0.281893 0.33449
-27.2173 1.55234 -4.47442 -0.922462 -0.272583 0.273428
-27.061 1.24485 -4.27181 -0.8942 -0.318806 0.314275
-26.9662 1.47452 -3.83887 -0.840333 -0.339833 0.422319
-26.7307 1.14688 -3.65781 -0.723295 -0.357373 0.590871
-26.0111 1.04698 -3.09895 -0.448955 -0.243319 0.859788
-26.5675 1.56985 -3.27394 -0.446923 -0.143735 0.88295
-26.288 2.18017 -3.05289 -0.390282 -0.0752093 0.917618
-25.8091 1.43568 -2.934 -0.287436 -0.101341 0.952423
-25.1431 0.922755 -2.80357 -0.0728586 0.0385498 0.996597
-25.1856 1.69837 -2.84693 0.0837412 0.1786 0.980352
-25.6264 1.96342 -2.87778 -0.204015 0.0332116 0.978404
-25.8748 2.71831 -3.05172 0.0652542 0.365485 0.928527
-25.0336 3.1524 -3.35406 0.16885 0.373807 0.912008
-24.7995 2.29501 -3.0522 0.193955 0.359378 0.912814
-24.0746 2.22018 -3.18888 0.226212 0.319899 0.92005
-23.8321 2.6854 -3.43508 0.240477 0.383728 0.891585
-24.315 3.40493 -3.62896 0.24516 0.413463 0.876895
-23.4688 3.48104 -3.91082 0.257634 0.421611 0.869407
-22.7603 3.14613 -3.97757 0.260669 0.414708 0.871819
-23.4612 4.20518 -4.26265 0.271584 0.400159 0.87528
-22.0582 3.24405 -4.22562 0.236244 0.434647 0.869063
-19.6862 2.27083 -4.7887 0.522499 0.164626 0.836596
-18.9564 1.49683 -5.54107 0.866253 -0.244561 0.435655
-18.2693 2.05443 -7.06478 0.938587 -0.2624 0.224055
-18.3534 1.51463 -7.45539 0.914236 -0.347909 0.207683
-19.1944 1.37122 -9.73552 0.672025 -0.241838 -0.699926
-18.9698 2.19014 -9.7882 0.689921 -0.136419 -0.710914
-19.2528 2.19445 -10.0612 0.692258 -0.130247 -0.709799
-19.7877 2.23743 -10.6239 0.70766 -0.237879 -0.665305
-20.0083 1.85041 -10.7297 0.736506 -0.247137 -0.629668
-19.6624 2.7837 -10.6158 0.763358 -0.167971 -0.623755
-20.1464 2.1401 -11.0122 0.740334 -0.276381 -0.612796
-21.824 1.09441 -11.4183 0.0585174 -0.614996 -0.786356
-23.2214 1.48866 -11.2507 -0.361164 -0.724576 -0.586985
-21.3412 2.24473 -12.0411 0.10561 -0.415125 -0.903614
-22.6249 1.84696 -11.8807 -0.021852 -0.496978 -0.867488
-23.9221 1.42249 -10.6811 -0.33088 -0.834722 -0.440179
-23.4881 1.16318 -10.489 -0.339371 -0.857468 -0.386751
-24.6808 1.47681 -10.4379 -0.0366608 -0.771935 -0.634644
-25.2613 1.1646 -10.17 0.106365 -0.658063 -0.745412
-24.9808 1.37032 -10.3194 0.0473091 -0.72716 -0.684835
-27.3188 5.96728 -5.35202 -0.718117 0.330097 0.612654
-26.7655 6.45891 -5.07615 -0.638925 0.356304 0.681779
-27.2535 6.38487 -5.57582 -0.756294 0.461351 0.463869
-26.959 6.77064 -5.49278 -0.74125 0.408045 0.532961
-27.0604 6.76755 -5.64465 -0.779267 0.432563 0.453466
-24.401 0.821042 -9.67573 0.0210288 -0.747855 -0.663529
-24.4405 1.09175 -9.96398 -0.0794583 -0.775509 -0.626317
-24.7609 0.781208 -9.69934 0.213914 -0.695419 -0.686027
-25.2787 0.683585 -9.76067 0.293304 -0.635222 -0.714468
-27.555 6.22693 -6.11818 -0.878644 0.460975 0.124442
-27.3827 6.57042 -6.3119 -0.887766 0.456556 0.0585493
-27.604 6.17581 -6.3932 -0.917777 0.396972 -0.00990716
-27.3661 6.59339 -6.54324 -0.893749 0.444908 -0.0571792
-27.1394 7.05051 -6.2435 -0.881922 0.450878 0.137557
-27.2991 6.66318 -6.07001 -0.862582 0.459229 0.212279
-26.8487 7.54915 -6.07354 -0.873404 0.446866 0.193587
-27.06 7.25728 -6.46129 -0.89018 0.455535 -0.00823769
-26.9048 7.51484 -6.35011 -0.883916 0.4649 0.0506065
-26.8915 7.51125 -6.7338 -0.875964 0.474699 -0.0857169
-27.1231 7.08697 -6.7662 -0.88996 0.439638 -0.121204
-26.7906 7.73908 -6.66863 -0.930047 0.363029 -0.0567673
-26.5686 8.72758 -6.43697 -0.974463 0.224221 0.0121495
-26.7061 7.99836 -6.46312 -0.971742 0.235271 0.0190909
-26.6793 8.02357 -6.19753 -0.961999 0.229668 0.147683
-26.5784 8.63039 -6.27234 -0.967352 0.206476 0.14696
-26.4754 8.95022 -6.15735 -0.93978 0.252607 0.230226
-26.3485 9.41448 -6.26137 -0.946519 0.314817 0.0706555
-26.4814 9.02711 -6.52241 -0.951399 0.297018 -0.0813641
-26.7067 7.87808 -6.93815 -0.945003 0.283771 -0.162613
-26.6696 8.11707 -6.71164 -0.968549 0.229887 -0.0952068
-26.5444 8.48003 -6.97461 -0.939627 0.249706 -0.233982
-26.4882 8.1802 -7.37169 -0.894597 0.244017 -0.374369
-26.4441 8.03872 -7.54444 -0.835407 0.267025 -0.480409
-26.74 7.53167 -7.28914 -0.839834 0.417338 -0.347143
-26.343 8.08275 -7.68736 -0.783754 0.250936 -0.568121
-26.1562 8.35088 -7.82148 -0.717893 0.257429 -0.646808
-26.1433 8.06367 -7.93758 -0.668997 0.226434 -0.707934
-25.3704 9.44217 -8.06372 -0.506191 0.278224 -0.81631
-24.9916 9.69118 -8.18045 -0.377986 0.266845 -0.886521
-25.1931 9.6781 -8.08526 -0.451999 0.283778 -0.845675
-24.889 10.2952 -8.03059 -0.395139 0.26645 -0.87913
-24.6787 10.0609 -8.185 -0.321159 0.257318 -0.911397
-24.5592 10.6477 -8.06812 -0.289924 0.22689 -0.929766
-24.8961 8.31663 -8.57376 -0.255269 0.233129 -0.938344
-24.5584 8.39443 -8.63249 -0.18266 0.237959 -0.953945
-22.4024 10.3198 -8.56098 -0.314294 0.265212 -0.911527
-22.4954 11.3397 -8.30399 -0.212487 0.166079 -0.962947
-23.0271 11.0888 -8.23092 -0.178379 0.120813 -0.976517
-23.2949 11.0326 -8.19801 -0.121961 0.0837858 -0.988992
-23.3983 12.2804 -8.08759 -0.1585 0.0787272 -0.984215
-22.9406 12.095 -8.15962 -0.124359 0.0714262 -0.989663
-23.5337 11.5012 -8.13048 -0.132225 0.0870405 -0.987391
-22.6782 10.7637 -8.36424 -0.243275 0.180521 -0.953011
-22.5341 10.6023 -8.44244 -0.28341 0.2123 -0.935205
-20.8387 9.89353 -9.55794 -0.362611 0.269086 -0.892248
-21.185 10.1487 -9.32224 -0.426629 0.277552 -0.860786
-19.6448 10.4829 -9.73881 -0.1709 0.171452 -0.970256
-20.038 11.0669 -9.5393 -0.239546 0.179216 -0.954201
-18.9244 9.9604 -9.84992 0.19411 0.133123 -0.971905
-18.9155 11.2894 -9.65063 0.133102 0.158149 -0.978403
-18.6123 10.7874 -9.64769 0.38056 0.134152 -0.914974
-18.2646 11.7416 -9.34512 0.482201 0.129195 -0.866482
-18.0977 10.9244 -9.35927 0.528345 0.122482 -0.840149
-18.5506 11.4792 -9.52136 0.414986 0.140746 -0.898876
-18.0589 11.6198 -9.23024 0.556263 0.131176 -0.820588
-17.9557 12.1414 -9.0485 0.703584 0.136288 -0.697421
-18.5894 11.9189 -9.46691 0.350803 0.167481 -0.921351
-18.3288 12.838 -9.18453 0.457702 0.136663 -0.87854
-18.0883 12.2432 -9.13856 0.62588 0.140817 -0.767102
-17.9212 12.829 -8.88199 0.670536 0.143622 -0.727842
-18.0949 13.0274 -9.00111 0.646967 0.146695 -0.748274
-18.2369 13.5654 -9.01055 0.602662 0.122517 -0.788536
-17.744 11.9117 -8.87898 0.8073 0.116344 -0.578559
-17.7631 12.5245 -8.7653 0.828076 0.143645 -0.5419
-17.6417 10.3306 -8.95542 0.790259 0.0775349 -0.607848
-17.5841 10.8738 -8.77214 0.853147 0.0766954 -0.516002
-19.32 13.0158 -9.32019 -0.0458694 0.165784 -0.985095
-19.1166 12.223 -9.4889 -0.0720726 0.190504 -0.979037
-17.6264 8.85861 -8.85324 0.889808 -0.071863 -0.450641
-17.8069 8.15878 -9.05547 0.852442 -0.0972494 -0.513698
-17.7186 8.1399 -8.88724 0.894498 -0.145637 -0.422686
-17.9454 6.92117 -8.86868 0.897002 -0.190783 -0.398735
-18.1611 6.0337 -8.94041 0.874791 -0.175186 -0.451719
-17.7786 7.1082 -8.28451 0.969933 -0.22903 -0.0823162
-17.8955 6.66648 -8.39642 0.960023 -0.221397 -0.171289
-17.71 7.54001 -8.5198 0.966558 -0.213434 -0.142165
-17.9898 6.16173 -8.32654 0.981121 -0.169286 -0.0935102
-17.9795 6.603 -7.69601 0.925623 -0.167836 0.339195
-18.2998 6.4494 -7.14553 0.785399 -0.0513743 0.616854
-18.3949 5.84776 -7.03482 0.758356 0.00626845 0.651811
-18.6174 6.27031 -6.80073 0.654225 0.0101914 0.756231
-18.6312 5.84775 -6.7829 0.606987 0.00988449 0.79465
-24.4278 0.356741 -9.05768 0.241349 -0.840868 -0.48445
-25.145 0.041833 -8.29723 0.42127 -0.871869 0.249752
-26.1915 -0.324664 -8.24339 0.224906 -0.933949 0.277769
-25.3794 0.0126399 -8.05143 0.368288 -0.923974 0.10313
-25.6832 -0.0830931 -7.85981 0.347043 -0.925905 0.149204
-26.51 -0.406718 -8.27698 0.162232 -0.950023 0.266716
-26.7673 -0.548265 -9.06707 0.100548 -0.992075 -0.0753424
-27.5575 0.545518 -7.39705 -0.860924 -0.381403 0.336663
-27.4224 0.226902 -7.44543 -0.819578 -0.46825 0.330205
-27.3375 0.408402 -6.97089 -0.861932 -0.407359 0.30188
-27.5237 0.725963 -7.1227 -0.873993 -0.370176 0.314812
-27.1795 0.425414 -6.39314 -0.884877 -0.432438 0.173176
-27.3605 0.812839 -6.43984 -0.904453 -0.37587 0.201712
-27.2888 0.820903 -6.01563 -0.918805 -0.358947 0.164179
-27.4142 1.23483 -5.93549 -0.939423 -0.291898 0.179663
-27.5893 1.78684 -6.01727 -0.955503 -0.228414 0.186656
-27.4755 1.17777 -6.2951 -0.932121 -0.303697 0.197279
-27.828 2.31906 -6.64219 -0.957117 -0.171753 0.233299
-27.7158 2.3458 -6.13605 -0.963537 -0.190174 0.188229
-27.6971 2.4692 -5.89347 -0.966364 -0.200138 0.161512
-27.7906 2.50757 -6.34019 -0.961666 -0.184596 0.202785
-27.7183 2.68687 -5.6931 -0.967852 -0.199531 0.153135
-27.5563 2.04135 -5.5613 -0.960869 -0.223209 0.164037
-27.6273 2.47061 -5.40813 -0.96771 -0.20092 0.152214
-27.528 2.24371 -5.06191 -0.962913 -0.214599 0.163538
-27.5593 2.25265 -5.27075 -0.960889 -0.232846 0.149919
-27.6825 2.72854 -5.45569 -0.972652 -0.141615 0.184101
-27.5391 2.52223 -4.83377 -0.970357 -0.149216 0.190108
-27.3591 1.62844 -5.00687 -0.948691 -0.26006 0.179872
-26.9764 0.902835 -4.39045 -0.91842 -0.295263 0.263294
-27.2763 1.5067 -4.77662 -0.940654 -0.265888 0.210888
-27.1378 0.968248 -4.84587 -0.934265 -0.296844 0.197565
-26.9979 0.62377 -4.7772 -0.907961 -0.331568 0.256262
-26.901 0.556521 -4.53757 -0.889679 -0.330659 0.314858
-26.4318 0.834602 -3.4959 -0.704197 -0.396559 0.588937
-24.92 0.189303 -2.74422 -0.232489 -0.0597702 0.970761
-24.7749 0.784741 -2.76527 0.0574986 0.103442 0.992972
-24.7846 1.63679 -2.8705 0.113911 0.15646 0.981094
-23.118 2.5435 -3.61407 0.305982 0.322315 0.895817
-22.5835 2.34177 -3.74145 0.334708 0.252235 0.907936
-21.384 2.72791 -4.18619 0.264244 0.235081 0.935368
-21.0191 2.08092 -4.17885 0.304598 0.0778245 0.949296
-20.3699 1.11172 -4.34789 0.369333 0.049145 0.927997
-20.3278 2.3187 -4.44455 0.415641 0.113565 0.902411
-19.2502 1.45005 -5.13575 0.753101 -0.170015 0.635558
-18.393 1.71329 -6.94256 0.894839 -0.379163 0.235582
-19.2188 0.0462467 -7.1557 0.81317 -0.550228 0.189747
-19.0326 0.304114 -7.24676 0.830433 -0.509909 0.22444
-19.391 -0.0546067 -6.5239 0.834814 -0.535293 0.128633
-19.3615 -0.16151 -7.14867 0.795862 -0.58141 0.169014
-18.8793 0.363808 -7.64976 0.855256 -0.495124 0.152936
-18.9402 0.183963 -7.91442 0.803839 -0.576364 0.14713
-19.086 0.0972107 -7.57066 0.762156 -0.634154 0.130256
-19.6563 -0.612903 -7.65618 0.718962 -0.685837 0.112793
-19.4903 -0.495572 -8.17008 0.698233 -0.715859 0.00405028
-19.2378 -0.217355 -8.05886 0.737122 -0.673431 0.0560535
-18.9488 0.241942 -8.51808 0.795296 -0.585332 -0.157766
-18.6489 0.818578 -8.58246 0.861909 -0.372907 -0.343589
-19.0899 0.709635 -9.31596 0.700283 -0.377291 -0.606016
-20.3696 0.573905 -10.3343 0.505393 -0.43761 -0.74369
-20.0155 1.26271 -10.4649 0.598735 -0.356068 -0.717448
-20.0131 0.600628 -10.1093 0.52564 -0.438556 -0.728952
-25.8272 6.10634 -4.44754 -0.327687 0.219628 0.918904
-26.617 7.3262 -5.39641 -0.722842 0.344032 0.599284
-26.8341 6.67459 -5.27205 -0.695322 0.382068 0.608729
-26.8152 7.26749 -5.66441 -0.80423 0.383176 0.454303
-27.0358 7.09039 -5.93488 -0.843301 0.421649 0.333251
-27.2091 6.69552 -5.85101 -0.811294 0.459561 0.361393
-27.5359 6.17421 -5.90619 -0.856022 0.44313 0.266199
-27.4754 6.11028 -5.66512 -0.817335 0.370868 0.440932
-26.7181 7.59122 -5.75815 -0.84622 0.369666 0.383744
-26.7408 7.70056 -5.95005 -0.890045 0.38231 0.248312
-26.5124 7.79595 -5.5139 -0.839972 0.300156 0.452054
-26.3324 8.39761 -5.50098 -0.855953 0.242828 0.456486
-26.605 7.98687 -5.8548 -0.893023 0.277698 0.354111
-26.5026 8.40595 -5.86881 -0.894682 0.224029 0.386464
-26.5458 8.57652 -6.07433 -0.929814 0.216586 0.297552
-26.6119 8.15217 -6.00371 -0.940612 0.197299 0.276264
-26.7733 7.77403 -6.28821 -0.921628 0.37864 0.0850541
-26.1605 9.68157 -5.95657 -0.849795 0.372445 0.373007
-25.9859 9.79455 -5.7235 -0.750414 0.35211 0.559372
-25.9479 9.98103 -5.80318 -0.810148 0.376555 0.449295
-26.1924 9.44158 -5.79822 -0.842298 0.324034 0.430739
-25.7604 10.4374 -5.85149 -0.810125 0.361811 0.461292
-25.6897 10.3268 -5.67415 -0.712688 0.344858 0.610859
-25.8695 10.3388 -5.97572 -0.849427 0.386575 0.359214
-25.8767 10.5432 -6.25951 -0.900012 0.394682 0.184945
-26.034 10.0516 -6.05489 -0.876366 0.38486 0.289595
-26.0561 10.1073 -6.24077 -0.906197 0.38775 0.168694
-26.0335 10.2063 -6.40785 -0.920278 0.390978 0.0149534
-26.229 9.73127 -6.28575 -0.916229 0.378912 0.13019
-26.3862 9.24998 -6.66489 -0.933218 0.324675 -0.153917
-26.3052 9.4138 -6.77497 -0.914069 0.340484 -0.220337
-26.4383 8.98949 -6.82119 -0.936213 0.282184 -0.20947
-26.5784 8.54965 -6.74257 -0.959709 0.234874 -0.154251
-26.451 8.43066 -7.32052 -0.878073 0.275987 -0.390921
-26.3913 9.01344 -6.96216 -0.896253 0.306596 -0.320515
-26.1889 8.5172 -7.7069 -0.801545 0.270763 -0.533116
-25.8149 9.30057 -7.76781 -0.685554 0.300725 -0.663009
-25.7254 9.68006 -7.67998 -0.667114 0.332218 -0.666776
-25.6958 9.42038 -7.83006 -0.629544 0.30908 -0.712842
-26.1093 8.90245 -7.62249 -0.764806 0.293215 -0.573669
-26.0105 8.81024 -7.77925 -0.699869 0.284984 -0.654956
-25.9719 9.13023 -7.67867 -0.724238 0.307858 -0.617012
-25.6053 9.32616 -7.94463 -0.577812 0.293108 -0.761722
-25.7305 8.87344 -8.01121 -0.593303 0.270872 -0.758037
-25.9138 8.73059 -7.90708 -0.650975 0.278885 -0.706013
-24.9546 10.6544 -7.88007 -0.501846 0.285125 -0.816611
-25.2133 9.98498 -7.96243 -0.516251 0.298592 -0.8027
-24.6597 11.1678 -7.8844 -0.436341 0.252381 -0.863661
-24.4917 11.4785 -7.88243 -0.458822 0.248309 -0.853127
-24.6597 11.6261 -7.72214 -0.569037 0.289233 -0.769767
-24.2965 12.118 -7.80862 -0.504189 0.240894 -0.829315
-23.9124 12.9292 -7.82387 -0.518288 0.228662 -0.82407
-24.1649 12.5976 -7.75856 -0.554977 0.250876 -0.793134
-24.0257 12.3565 -7.8969 -0.411778 0.192508 -0.890719
-24.3364 11.4743 -7.95689 -0.357257 0.222487 -0.90712
-24.1442 11.4601 -8.02603 -0.286855 0.192419 -0.93845
-23.0322 13.1968 -8.07025 -0.155391 0.087285 -0.983989
-22.2427 10.997 -8.44297 -0.330828 0.233275 -0.914404
-21.6956 10.8731 -8.73232 -0.519416 0.293853 -0.802407
-21.4855 10.182 -9.1401 -0.52784 0.303418 -0.793298
-21.051 10.6786 -9.22347 -0.450918 0.254829 -0.855415
-20.6331 11.6679 -9.16292 -0.437352 0.231767 -0.868912
-20.6062 10.8728 -9.38876 -0.38129 0.218656 -0.898225
-19.7802 11.9727 -9.43616 -0.250869 0.189233 -0.949345
-19.5585 12.0511 -9.47012 -0.177992 0.191218 -0.965274
-19.3753 11.5545 -9.59093 -0.108877 0.181124 -0.977415
-18.846 12.7508 -9.37165 0.0445206 0.181822 -0.982323
-18.7747 12.1476 -9.4792 0.180601 0.184627 -0.966072
-18.5797 12.9091 -9.27836 0.275344 0.183498 -0.94367
-18.5101 13.4322 -9.18044 0.4516 0.107667 -0.8857
-18.6062 14.0994 -9.15161 0.455483 0.053153 -0.888656
-18.2066 14.3144 -8.87423 0.666697 0.0751606 -0.74153
-18.3715 14.1402 -9.02835 0.545393 0.0928002 -0.833027
-18.3284 14.9755 -8.92854 0.698903 0.083046 -0.710378
-18.5533 15.8834 -8.95736 0.566375 0.20223 -0.798951
-18.5206 15.3311 -9.05286 0.526038 0.123497 -0.841446
-19.017 16.4039 -9.09267 0.281129 0.196676 -0.9393
-18.8537 15.7584 -9.1683 0.322836 0.14281 -0.935619
-18.318 15.566 -8.83253 0.740737 0.18428 -0.646026
-18.104 15.5207 -8.5865 0.806746 0.244885 -0.537766
-17.9536 14.4318 -8.53593 0.832159 0.091905 -0.546868
-17.8476 13.5579 -8.59965 0.805188 0.165576 -0.569435
-18.0807 13.9729 -8.79512 0.79042 0.136998 -0.597049
-18.0063 13.5836 -8.80401 0.747823 0.146928 -0.647436
-17.6746 12.9509 -8.51835 0.871767 0.155978 -0.464427
-17.5898 13.2614 -8.20855 0.89742 0.200047 -0.393216
-17.4997 12.6917 -8.25325 0.951023 0.072637 -0.300463
-17.6148 11.6056 -8.73372 0.908088 0.0612819 -0.414271
-17.5546 12.2415 -8.51418 0.893325 0.111719 -0.435305
-17.4371 11.9276 -8.21197 0.966726 0.0312711 -0.253896
-17.4571 11.1922 -8.37799 0.968178 0.0266381 -0.248842
-17.6866 9.3673 -9.0425 0.886679 -0.0229929 -0.461814
-17.5217 9.30291 -8.67839 0.926087 -0.0442323 -0.37471
-17.6818 7.99344 -8.7329 0.939545 -0.16935 -0.297618
-17.8679 7.04604 -8.72 0.944319 -0.21255 -0.251165
-17.5966 8.35122 -8.59941 0.976763 -0.139461 -0.162742
-18.0199 6.92007 -7.4399 0.839698 -0.184956 0.510587
-17.8405 9.52182 -7.17483 0.713429 -0.0750645 0.696695
-17.9628 6.37604 -7.95286 0.954165 -0.175796 0.242209
-18.5061 6.80548 -6.84694 0.609354 -0.105769 0.785812
-18.6388 7.70507 -6.67109 0.561274 -0.0334145 0.826955
-18.8357 7.26986 -6.5606 0.456104 -0.0237685 0.889609
-19.2622 6.97174 -6.36701 0.450272 -0.0190304 0.892689
-19.092 5.4379 -6.39221 0.477105 0.258194 0.840064
-20.9619 0.773142 -10.8503 0.466005 -0.587899 -0.661222
-20.7212 0.640702 -10.5933 0.390145 -0.537897 -0.747297
-21.1624 -0.0489959 -10.2744 0.248982 -0.572442 -0.781228
-21.7094 0.173427 -10.4813 -0.0190603 -0.666559 -0.745209
-21.2741 0.185265 -10.487 0.0996167 -0.62374 -0.775258
-21.4814 -0.149168 -10.2307 -0.0415978 -0.642614 -0.76506
-21.6065 0.412158 -10.7324 -0.0967144 -0.711496 -0.696002
-21.3396 0.593288 -10.8638 0.262471 -0.667846 -0.696485
-21.6517 0.857012 -11.1869 -0.0555235 -0.727619 -0.683731
-22.311 1.10623 -11.3155 -0.280765 -0.717454 -0.63752
-22.1655 0.532946 -10.737 -0.40304 -0.726485 -0.556577
-22.8009 0.990179 -10.869 -0.402 -0.773889 -0.489378
-23.0629 0.886467 -10.4429 -0.517221 -0.749474 -0.413245
-23.993 1.29173 -10.3615 -0.204543 -0.862809 -0.462302
-24.3179 1.3903 -10.3937 -0.135 -0.840692 -0.524416
-24.0681 1.17426 -10.1177 -0.119026 -0.826687 -0.549928
-23.7397 1.17985 -10.2763 -0.235634 -0.879109 -0.414299
-23.558 1.08114 -10.1897 -0.275395 -0.874621 -0.398992
-23.8948 1.01639 -9.92824 -0.135532 -0.836493 -0.530953
-23.449 0.990607 -10.0876 -0.505516 -0.808211 -0.302075
-24.5287 0.450322 -9.23207 0.205761 -0.803538 -0.55856
-23.8208 0.409019 -8.75969 0.123543 -0.925391 -0.358314
-24.1419 0.414749 -9.00563 0.204558 -0.851744 -0.482379
-25.14 0.125832 -7.95688 0.386004 -0.922274 -0.0202794
-26.2949 -0.318186 -7.41952 0.26418 -0.957272 -0.117642
-25.3374 6.64478 -4.42471 -0.177806 0.166333 0.969906
-24.509 8.27707 -4.43838 -0.150623 0.114248 0.981968
-24.8987 7.435 -4.42916 -0.236914 0.0738988 0.968716
-24.882 8.24555 -4.50097 -0.230387 0.141565 0.962747
-23.9913 7.57852 -4.36105 0.00975169 -0.00744328 0.999925
-25.2499 7.87724 -4.5688 -0.37934 0.116018 0.917955
-25.2995 7.1622 -4.50391 -0.249596 0.0932118 0.963854
-26.4426 7.00152 -5.05446 -0.604456 0.323825 0.727853
-26.3728 7.88268 -5.34308 -0.744012 0.254984 0.617599
-26.3554 7.65279 -5.25 -0.660667 0.222555 0.71693
-26.0276 8.09199 -5.09376 -0.646487 0.20964 0.733557
-26.1278 8.72751 -5.36773 -0.685129 0.233044 0.690137
-26.3481 8.10722 -5.39829 -0.768902 0.237383 0.593666
-26.1241 9.28714 -5.60156 -0.739112 0.300338 0.602918
-26.2559 8.9205 -5.62247 -0.848653 0.242702 0.469984
-26.3787 8.67535 -5.74511 -0.889589 0.217258 0.401785
-26.3811 9.06618 -5.94428 -0.901247 0.241328 0.359881
-25.5285 10.8333 -5.76163 -0.725407 0.348879 0.593353
-25.4304 11.4983 -6.27703 -0.879731 0.456272 0.133753
-25.6698 11.0261 -6.29575 -0.900425 0.416579 0.125284
-25.3706 11.5249 -6.06649 -0.848964 0.447255 0.281466
-25.2669 11.7747 -6.1908 -0.871705 0.458366 0.173297
-25.3459 11.6911 -6.4761 -0.882532 0.469624 0.0243062
-25.2073 11.9453 -6.53022 -0.887781 0.458379 -0.0416373
-25.0154 12.3166 -6.41335 -0.892981 0.447177 0.0511614
-25.4226 11.5064 -6.62396 -0.885853 0.440859 -0.144595
-25.8767 10.5684 -6.49305 -0.914952 0.403114 -0.0190246
-26.1739 9.64087 -6.92038 -0.882051 0.349261 -0.316232
-25.8766 9.8703 -7.35913 -0.809324 0.359558 -0.464449
-25.5301 10.612 -7.36389 -0.769415 0.364984 -0.524202
-25.7297 10.0122 -7.48184 -0.743893 0.354863 -0.5663
-25.5376 10.3196 -7.53253 -0.715345 0.352113 -0.603571
-25.6153 9.96806 -7.64517 -0.658408 0.330696 -0.676121
-25.8472 9.6393 -7.5597 -0.7426 0.335281 -0.579769
-26.0819 9.62062 -7.17089 -0.845092 0.348557 -0.405374
-26.0351 9.3016 -7.50591 -0.802989 0.33206 -0.494918
-25.4312 10.3135 -7.65376 -0.664882 0.336265 -0.666977
-25.2381 10.4928 -7.74383 -0.594752 0.313269 -0.74036
-24.9368 11.2737 -7.65168 -0.618553 0.328217 -0.713909
-24.8592 11.0625 -7.79756 -0.557227 0.299022 -0.774651
-24.4902 12.1156 -7.67278 -0.624163 0.289538 -0.725664
-24.3732 12.5443 -7.59635 -0.675031 0.309894 -0.669551
-24.9362 11.8687 -7.31141 -0.759451 0.371707 -0.533918
-24.7716 12.2216 -7.30298 -0.761259 0.366458 -0.53497
-24.8684 11.7921 -7.44309 -0.710625 0.359596 -0.604733
-25.2607 11.0507 -7.43476 -0.725158 0.368779 -0.581505
-25.2339 11.3564 -7.24769 -0.770296 0.389731 -0.504732
-25.4173 10.9979 -7.2548 -0.789561 0.390226 -0.473622
-25.3094 10.6529 -7.60477 -0.677164 0.341835 -0.651612
-24.7332 11.779 -7.59386 -0.658575 0.325736 -0.678362
-25.1097 11.0635 -7.59422 -0.665388 0.346788 -0.661058
-23.1243 10.4956 -8.31646 -0.205421 0.201607 -0.957683
-25.0112 11.9494 -7.13052 -0.804199 0.392006 -0.44676
-24.6709 12.6491 -7.14082 -0.806871 0.385759 -0.44738
-24.4675 12.6907 -7.41071 -0.737625 0.341352 -0.582571
-24.5407 12.8201 -7.2239 -0.779288 0.365557 -0.508997
-24.2302 13.1719 -7.44016 -0.751231 0.341059 -0.565093
-24.0951 13.0842 -7.63205 -0.652222 0.295903 -0.697888
-23.8598 13.6152 -7.62024 -0.65284 0.280041 -0.70383
-23.7523 13.3431 -7.81438 -0.516462 0.243527 -0.820951
-23.6046 13.7045 -7.78371 -0.568339 0.249034 -0.784202
-23.5194 14.0552 -7.75706 -0.588925 0.169495 -0.790215
-23.6461 12.9964 -7.94934 -0.363563 0.165587 -0.916735
-23.2978 13.809 -7.92031 -0.352564 0.167398 -0.920694
-23.2646 13.34 -8.01473 -0.237617 0.136674 -0.961695
-23.5224 12.6752 -8.02536 -0.270123 0.11589 -0.955826
-23.8034 12.0534 -8.02226 -0.307213 0.14899 -0.939905
-22.731 12.7226 -8.14269 -0.110259 0.08099 -0.990598
-22.6695 13.2505 -8.10777 -0.100447 0.085089 -0.991297
-22.1203 12.9129 -8.18815 -0.0568864 0.141993 -0.988232
-22.601 13.7487 -8.05017 -0.0193921 0.0989103 -0.994907
-21.7248 12.9715 -8.23591 -0.223331 0.179863 -0.958005
-21.522 13.399 -8.16925 -0.20813 0.228961 -0.950925
-22.1176 11.9554 -8.29922 -0.198437 0.12702 -0.971848
-21.7299 12.1081 -8.37981 -0.273759 0.164795 -0.947575
-21.9315 11.3914 -8.45993 -0.373443 0.237455 -0.896747
-21.4124 12.5221 -8.4159 -0.426833 0.222255 -0.876594
-21.2227 12.0013 -8.65958 -0.540101 0.26265 -0.799566
-21.2915 11.4068 -8.81744 -0.537217 0.275965 -0.79702
-19.7846 12.8585 -9.25119 -0.255745 0.18675 -0.948535
-19.4863 15.5385 -9.27552 -0.0927835 -0.0291237 -0.99526
-19.4442 14.5804 -9.22504 -0.111314 -0.0455256 -0.992742
-19.6321 14.815 -9.19909 -0.192867 -0.0641052 -0.979129
-19.2446 15.7524 -9.27273 0.0375147 0.064723 -0.997198
-19.1155 15.2435 -9.27112 0.0215695 -0.0233129 -0.999496
-19.4556 15.9958 -9.23948 0.0523569 0.160214 -0.985693
-19.4533 16.3151 -9.1893 0.0880676 0.173837 -0.980829
-18.829 14.2026 -9.21532 0.102061 0.0185743 -0.994605
-19.1838 14.3323 -9.25102 0.00331958 -0.0268978 -0.999633
-19.2158 13.7158 -9.24545 -0.182689 0.0266869 -0.982808
-19.7465 14.1757 -9.13475 -0.271768 -0.000929122 -0.962362
-18.863 13.3587 -9.28682 0.0932085 0.144738 -0.98507
-19.1569 13.3231 -9.28751 -0.0142858 0.125314 -0.992014
-18.8773 14.9052 -9.232 0.307917 0.0238024 -0.951115
-18.6712 14.836 -9.16041 0.353597 0.0071878 -0.93537
-18.8402 15.4151 -9.20146 0.26836 0.0662644 -0.961037
-19.1111 16.8739 -9.01404 0.326735 0.220718 -0.918982
-19.0679 17.3784 -8.85852 0.364243 0.232568 -0.901798
-18.8632 16.932 -8.8633 0.61964 0.259924 -0.740598
-18.5877 16.776 -8.68181 0.688101 0.251448 -0.680655
-18.6855 16.3921 -8.90666 0.575902 0.241666 -0.780983
-17.7902 14.4433 -7.65986 0.952101 0.173403 0.251864
-17.9161 15.5029 -8.09261 0.959937 0.276497 -0.0454941
-17.6751 13.7722 -8.08437 0.933263 0.209315 -0.291902
-17.4298 12.7964 -7.94116 0.976846 0.196774 -0.0839692
-17.4502 10.3921 -8.42981 0.993894 0.00675649 -0.110128
-17.4264 10.6716 -8.10208 0.999942 0.00375185 0.0100682
-17.4853 10.268 -8.59685 0.967018 0.0323502 -0.252646
-17.4551 9.35084 -8.155 0.995903 -0.0899278 0.00945434
-17.5035 8.9296 -8.40458 0.986442 -0.113736 -0.118302
-17.5977 8.06977 -8.1921 0.987281 -0.141159 0.0731484
-17.5566 9.04507 -7.79228 0.939908 -0.107302 0.324127
-17.5664 8.48809 -7.98955 0.977552 -0.108084 0.18086
-17.8926 7.68797 -7.38267 0.858456 -0.120826 0.498451
-17.741 8.17992 -7.56197 0.903051 -0.099299 0.417898
-18.2253 7.09067 -7.07291 0.779054 -0.131478 0.613015
-18.0841 8.96041 -7.00217 0.681141 -0.0681015 0.728978
-18.1408 8.23504 -7.00922 0.679201 -0.0657787 0.730999
-18.122 7.82183 -7.06591 0.679403 -0.0775621 0.729655
-18.2992 8.17916 -6.8831 0.610087 -0.044832 0.791065
-18.5229 8.47994 -6.72027 0.529981 -0.0298745 0.847483
-19.4889 6.84689 -6.26909 0.393861 -0.0260565 0.918801
-19.6249 6.18866 -6.2102 0.389956 0.0737251 0.917878
-20.0305 5.79022 -5.98839 0.415328 0.0883302 0.905373
-20.2872 5.25629 -5.74918 0.381941 0.330773 0.862966
-19.0483 5.08214 -6.27633 0.430955 0.325731 0.841533
-21.4671 5.27617 -5.31562 0.335031 0.244779 0.909856
-26.7082 -0.500634 -8.53891 0.0722933 -0.973748 0.215844
-26.992 -0.5204 -8.65948 -0.133072 -0.985635 0.103993
-26.8899 -0.495116 -8.50939 -0.00862153 -0.982369 0.186751
-27.3131 -0.455389 -8.84866 -0.542585 -0.839346 -0.0331562
-27.1869 -0.476565 -8.66021 -0.357267 -0.907223 0.222049
-27.3525 -0.368333 -8.49202 -0.465755 -0.851417 0.241167
-27.4983 0.0458029 -7.88718 -0.745734 -0.564052 0.354579
-27.3529 -0.0311898 -7.73338 -0.734513 -0.603072 0.311118
-27.1594 0.141695 -6.91197 -0.785813 -0.553465 0.275998
-27.1821 0.763532 -5.50767 -0.92786 -0.341361 0.15016
-27.3284 1.24235 -5.44928 -0.944087 -0.27974 0.174489
-27.3924 1.31061 -5.64472 -0.945239 -0.274536 0.1765
-27.0144 0.488425 -5.08099 -0.924428 -0.348374 0.155141
-27.1435 0.560674 -5.85565 -0.897209 -0.418427 0.141189
-24.7493 5.70052 -4.27003 0.113932 0.0126982 0.993407
-24.5311 6.21282 -4.3123 0.00552814 0.100056 0.994966
-27.4418 1.65159 -5.46272 -0.954312 -0.243826 0.172733
-27.58 1.93547 -5.83107 -0.961081 -0.21284 0.176129
-27.4021 1.65429 -5.21902 -0.953844 -0.254497 0.159414
-27.2217 1.05001 -5.16113 -0.942176 -0.289124 0.169447
-26.0804 0.589343 -3.29448 -0.551789 -0.293726 0.780547
-25.7865 0.109613 -3.25564 -0.651234 -0.347774 0.674498
-25.8414 -0.283764 -3.5365 -0.686312 -0.380135 0.620059
-25.2588 0.0368302 -2.90422 -0.447128 -0.196669 0.872581
-25.5232 0.392189 -2.97912 -0.526469 -0.200738 0.826156
-24.9698 6.48146 -4.35094 -0.0747179 0.124521 0.9894
-24.0966 6.72563 -4.38393 0.0978683 0.0415356 0.994332
-24.4089 6.76226 -4.3722 0.0112279 0.088899 0.995977
-23.7497 7.3873 -4.3859 0.122018 -0.0420196 0.991638
-24.5087 7.2908 -4.36927 -0.0469666 -0.00332271 0.998891
-23.4543 7.35995 -4.44715 0.262115 0.0754743 0.962081
-22.9571 7.45491 -4.63384 0.398757 -0.00192372 0.917055
-23.4338 8.86261 -4.58929 0.20022 0.0958938 0.975047
-23.8769 8.09323 -4.4223 0.191759 0.105077 0.975801
-23.8242 8.78761 -4.51015 0.12712 0.115056 0.985192
-24.9006 8.95183 -4.61412 -0.278137 0.149185 0.948885
-25.0974 9.18749 -4.71501 -0.399575 0.192834 0.896189
-25.6463 8.62039 -4.89267 -0.616467 0.198336 0.761992
-25.5602 8.23151 -4.75577 -0.440385 0.137942 0.887149
-25.8377 7.62542 -4.82462 -0.55005 0.16616 0.818435
-25.9064 7.81076 -4.90744 -0.618529 0.186935 0.763202
-25.3863 8.79274 -4.7689 -0.52668 0.179984 0.830791
-25.4921 9.0028 -4.88298 -0.643418 0.239016 0.727245
-25.3425 9.62733 -4.96476 -0.609489 0.301415 0.733261
-25.4081 9.98147 -5.18337 -0.67226 0.331181 0.662107
-25.4382 10.4901 -5.48969 -0.669317 0.340713 0.66025
-24.7963 11.5945 -5.36322 -0.611581 0.302816 0.730939
-24.8585 10.9583 -5.16283 -0.623281 0.319872 0.713584
-25.1788 11.0728 -5.51533 -0.676486 0.318773 0.663891
-25.169 11.4724 -5.72424 -0.722292 0.371081 0.583604
-24.8361 12.4935 -6.03108 -0.808016 0.438429 0.393561
-25.0447 12.1083 -6.03312 -0.799343 0.411094 0.438237
-24.7308 12.5095 -5.8646 -0.767293 0.398001 0.502849
-24.5346 13.07 -6.07105 -0.841524 0.455956 0.289725
-24.9659 12.3414 -6.15059 -0.862336 0.454939 0.222278
-24.8038 12.7352 -6.34112 -0.87068 0.467574 0.15261
-24.5407 13.1682 -6.28845 -0.8752 0.457849 0.156202
-24.3856 13.4092 -6.12308 -0.865336 0.42053 0.272669
-24.3712 13.5546 -6.35559 -0.89079 0.428048 0.15254
-24.159 13.8227 -6.04385 -0.852365 0.417132 0.315396
-24.1254 14.0328 -6.29956 -0.893818 0.413731 0.172964
-24.2893 13.7618 -6.5453 -0.900463 0.432195 0.0487135
-24.5779 13.1676 -6.64331 -0.893513 0.448835 0.0135043
-24.2994 13.721 -6.74834 -0.898955 0.421109 -0.120615
-24.1184 14.1339 -6.57892 -0.924103 0.379592 0.0440784
-24.823 12.7067 -6.62072 -0.890394 0.449285 -0.0730832
-24.6263 13.0362 -6.7746 -0.876525 0.43309 -0.210087
-24.7098 12.9138 -6.44043 -0.868798 0.492131 0.0547398
-25.4619 11.3563 -6.76604 -0.855698 0.417397 -0.305877
-25.6418 11.018 -6.70456 -0.885178 0.416771 -0.206788
-25.9157 10.4323 -6.69619 -0.897461 0.387572 -0.2106
-26.2767 9.60457 -6.50309 -0.931874 0.355701 -0.0713315
-25.8026 10.5551 -6.88068 -0.855484 0.395441 -0.334326
-25.685 10.5477 -7.15376 -0.825425 0.380447 -0.417053
-25.9474 10.0538 -7.06033 -0.856316 0.368054 -0.362296
-24.4704 13.0877 -7.12112 -0.817431 0.385536 -0.427983
-24.6039 12.96 -6.96581 -0.844246 0.410471 -0.34462
-24.0405 13.9594 -7.1987 -0.822355 0.335525 -0.459516
-23.8913 14.3233 -7.2344 -0.856584 0.257131 -0.447377
-23.8608 14.1454 -7.37782 -0.790639 0.253948 -0.557136
-23.6953 14.4773 -7.49186 -0.798349 0.138621 -0.586023
-23.9398 13.8653 -7.41834 -0.753916 0.311949 -0.578185
-24.256 13.3401 -7.29362 -0.789347 0.34712 -0.506398
-24.2403 13.5667 -7.13788 -0.849294 0.373312 -0.37328
-24.0259 13.5531 -7.47658 -0.716905 0.323081 -0.617791
-23.6785 14.1586 -7.59147 -0.706752 0.217591 -0.673169
-23.3622 14.4283 -7.8245 -0.519642 0.0431781 -0.853292
-23.2005 14.2382 -7.91583 -0.41587 0.0907803 -0.904882
-23.0282 13.9156 -7.99069 -0.200785 0.120893 -0.972147
-22.4821 14.3275 -8.06301 -0.0803148 -0.0323748 -0.996244
-21.5261 14.3937 -8.07376 -0.0777089 -0.0219486 -0.996734
-21.6596 13.6783 -8.08445 -0.130232 0.137709 -0.981874
-21.2506 13.1086 -8.32874 -0.338025 0.238963 -0.910294
-21.2103 13.7222 -8.18912 -0.485333 0.1313 -0.864414
-20.0639 13.8866 -8.97139 -0.537581 0.0339502 -0.842529
-20.13 13.4313 -8.98109 -0.522067 0.165229 -0.836747
-20.2536 12.8408 -9.04962 -0.509171 0.215997 -0.833121
-20.4882 12.9167 -8.87638 -0.568186 0.224996 -0.791543
-20.2389 12.4247 -9.16389 -0.391563 0.213211 -0.895109
-19.5942 13.5516 -9.1821 -0.316733 0.103976 -0.942799
-19.9361 13.4762 -9.07416 -0.447845 0.0923017 -0.889334
-20.0506 14.3759 -9.00438 -0.451097 -0.0856294 -0.888358
-20.3207 14.8405 -8.88545 -0.579019 -0.0942583 -0.809847
-20.5437 14.1087 -8.62209 -0.589802 -0.0574147 -0.805504
-20.202 15.5386 -9.03138 -0.491955 -0.0827839 -0.866676
-20.3328 16.6258 -8.90935 -0.426125 0.103385 -0.898738
-20.0978 17.2024 -8.95238 -0.311263 0.125667 -0.941978
-19.8613 16.6803 -9.09095 -0.154028 0.154159 -0.975966
-19.4406 16.7505 -9.11554 -0.0191204 0.163711 -0.986323
-19.4751 17.2849 -9.01594 0.189852 0.207921 -0.959544
-19.3255 17.8746 -8.84054 0.473818 0.264932 -0.839826
-18.9754 18.0863 -8.52321 0.614942 0.292526 -0.732308
-19.2624 18.3123 -8.67523 0.605442 0.285191 -0.743038
-18.4073 16.6289 -8.51481 0.792118 0.258508 -0.552921
-17.9739 15.389 -7.45137 0.866681 0.164923 0.470813
-18.2044 16.3022 -8.27076 0.933731 0.30484 -0.187667
-18.0061 15.7393 -8.25318 0.888449 0.269162 -0.371767
-18.5749 17.4707 -8.3468 0.832088 0.321157 -0.452203
-18.4012 17.2563 -8.08609 0.909978 0.301532 -0.284636
-18.2882 16.7376 -8.16978 0.915223 0.240409 -0.323374
-17.6155 13.6668 -7.85128 0.96573 0.234743 -0.110728
-17.6502 13.0582 -7.08565 0.884659 0.196825 0.422657
-17.488 13.0471 -7.47303 0.927779 0.225826 0.297034
-17.6554 13.6156 -7.40224 0.891841 0.244405 0.380637
-17.5673 13.4754 -7.58785 0.95533 0.247188 0.161998
-17.7227 14.0812 -7.62941 0.940452 0.233827 0.246731
-17.3898 12.5398 -7.75773 0.999841 -0.00872616 -0.0155334
-17.4288 11.5488 -7.85409 0.999244 -0.0253654 0.0294631
-17.4135 11.7643 -7.9808 0.99902 -0.0401884 0.018523
-17.404 12.3558 -7.58847 0.976302 -0.0778496 0.201923
-17.4914 11.9768 -7.41372 0.926206 -0.110522 0.360455
-17.6618 11.4772 -7.22107 0.782881 -0.0831723 0.616587
-17.4713 10.5245 -7.76375 0.950899 -0.0111151 0.309302
-17.5598 11.1848 -7.48894 0.935535 -0.0585942 0.348339
-17.4474 11.079 -7.85687 0.991661 -0.038343 0.123036
-17.4344 9.72446 -8.20779 0.998724 -0.0346128 0.0367803
-17.5214 8.68503 -8.2201 0.990932 -0.113818 0.0714064
-17.8463 8.96919 -7.2391 0.83163 -0.0850053 0.548786
-17.8078 8.59425 -7.34142 0.868955 -0.0815726 0.488122
-18.3198 9.21124 -6.81308 0.472486 -0.0161077 0.881191
-19.7939 7.31755 -6.13481 0.351146 0.0516543 0.934895
-20.2526 7.31851 -5.96628 0.320193 0.0624288 0.945293
-20.5165 6.94732 -5.87049 0.34037 0.0310888 0.939777
-21.8732 6.34477 -5.28028 0.397607 0.0874587 0.913378
-24.9623 -0.236384 -2.88898 -0.311279 -0.300078 0.901698
-26.1132 4.89524 -9.21462 -0.31916 0.564813 -0.761001
-23.6518 6.61954 -4.45673 0.160193 -0.0649302 0.984948
-23.8949 6.14375 -4.39901 0.187774 0.0254997 0.981881
-23.3014 6.68309 -4.55879 0.343465 -0.123516 0.931008
-22.5611 6.67166 -4.91141 0.430474 -0.0986988 0.897191
-23.1821 7.14666 -4.54136 0.404907 -0.0861939 0.910286
-22.5057 7.44227 -4.87081 0.49096 -0.0291688 0.870694
-22.9436 8.21017 -4.70279 0.426344 0.0494961 0.903206
-23.1228 8.07187 -4.60962 0.348126 0.0705759 0.934787
-23.2161 8.83069 -4.64319 0.307923 0.0640517 0.949253
-23.8961 9.40646 -4.58145 0.103026 0.114738 0.988039
-23.3156 9.70251 -4.69177 0.167435 0.100554 0.980742
-24.2474 8.34008 -4.43023 0.00449675 0.134879 0.990852
-24.3232 9.30074 -4.56924 -0.083468 0.147872 0.985478
-24.5411 9.59049 -4.64606 -0.171768 0.164326 0.971336
-24.6123 8.80945 -4.52988 -0.139412 0.153511 0.978263
-24.4637 10.1726 -4.73686 -0.247658 0.195686 0.94888
-24.9049 9.94637 -4.8139 -0.340396 0.217031 0.914893
-24.5413 11.0378 -4.97327 -0.474546 0.298706 0.827998
-25.1217 9.84532 -4.88391 -0.486641 0.240405 0.839873
-25.0175 10.3283 -4.9937 -0.616396 0.326748 0.716444
-24.5371 11.5597 -5.15993 -0.500951 0.305279 0.809847
-24.5807 12.0422 -5.4025 -0.545263 0.350935 0.761271
-24.1364 12.584 -5.32064 -0.547266 0.290387 0.784968
-24.3576 12.7476 -5.55944 -0.702653 0.346032 0.621724
-24.0768 13.2554 -5.51998 -0.664672 0.325758 0.672378
-24.3601 13.2822 -5.92157 -0.819143 0.397878 0.413155
-24.3422 13.144 -5.774 -0.759127 0.364874 0.539067
-24.59 12.4953 -5.65993 -0.709219 0.372192 0.598733
-24.8292 12.088 -5.70184 -0.734666 0.383283 0.559786
-24.4861 13.0553 -5.9437 -0.800115 0.426348 0.421951
-24.1476 13.6403 -5.83931 -0.787539 0.397079 0.471286
-23.669 13.9428 -5.4875 -0.615492 0.368995 0.696428
-23.6804 14.4085 -5.78268 -0.679099 0.397701 0.616975
-23.9469 13.8064 -5.67511 -0.720173 0.397221 0.568829
-23.8721 14.3273 -5.9864 -0.785311 0.404415 0.468759
-23.8819 14.6723 -6.37445 -0.917537 0.305666 0.25435
-23.9828 14.283 -6.18524 -0.8749 0.386325 0.292067
-23.7627 14.7531 -6.13501 -0.839118 0.305714 0.449912
-24.0043 14.3946 -6.46745 -0.916727 0.361446 0.170204
-23.9316 14.6439 -6.602 -0.947857 0.299398 0.109216
-23.9757 14.5264 -6.77056 -0.953126 0.294764 -0.0683004
-23.8194 15.1067 -6.72366 -0.971192 0.236653 0.0279599
-23.8772 14.7666 -6.97937 -0.954649 0.215401 -0.205542
-23.7823 15.2558 -6.92126 -0.975314 0.190656 -0.111409
-23.7018 15.1069 -7.30102 -0.915042 0.146791 -0.3757
-23.7776 14.5927 -7.32913 -0.873677 0.151575 -0.462291
-23.8736 14.5912 -7.1052 -0.908849 0.220463 -0.354104
-24.047 14.1635 -7.00412 -0.887321 0.329621 -0.322508
-23.9739 14.434 -6.93929 -0.93045 0.287008 -0.227794
-24.1751 13.9361 -6.88148 -0.885715 0.381898 -0.263936
-24.1045 14.1556 -6.77149 -0.923233 0.360093 -0.134067
-24.3635 13.4883 -6.92135 -0.862049 0.40744 -0.301435
-24.8057 12.6396 -6.84722 -0.870437 0.424517 -0.24925
-24.9794 12.2144 -6.92662 -0.844431 0.409718 -0.345062
-23.5366 15.1443 -7.59582 -0.816325 0.0981989 -0.569184
-23.5171 14.9625 -7.64856 -0.727757 0.0656266 -0.682688
-23.5284 14.4556 -7.68814 -0.690995 0.0946964 -0.71663
-23.3618 14.708 -7.8105 -0.61056 0.0295382 -0.791419
-23.3553 15.3323 -7.7908 -0.692133 0.04885 -0.720115
-23.183 15.1341 -7.93078 -0.550884 0.0039853 -0.834572
-23.0098 15.265 -8.02691 -0.399649 -0.0321963 -0.916103
-23.1243 15.6478 -7.9642 -0.565003 0.0175116 -0.824903
-23.0863 14.7521 -7.9779 -0.413279 -0.026745 -0.910212
-22.719 14.5654 -8.05958 -0.0870818 -0.0923568 -0.991911
-22.8144 14.9013 -8.07506 -0.236009 -0.0738736 -0.968939
-21.6752 14.5858 -8.07409 0.00868152 -0.0888667 -0.996006
-22.0859 13.9663 -8.04443 0.00970027 -0.0230371 -0.999688
-21.2094 13.9875 -8.16007 -0.494575 0.032358 -0.868532
-21.0766 13.0067 -8.44224 -0.49379 0.244113 -0.834614
-20.7869 13.5892 -8.4626 -0.585976 0.178721 -0.790374
-21.2644 14.275 -8.13624 -0.438906 -0.0591843 -0.896582
-20.7767 14.3846 -8.46616 -0.570035 -0.0908286 -0.816584
-21.2602 15.0793 -8.2188 -0.429894 -0.0954551 -0.897819
-21.0587 15.0958 -8.34112 -0.533848 -0.0963332 -0.840075
-21.0185 16.2764 -8.45932 -0.585904 -0.0265303 -0.809946
-21.0607 15.7564 -8.40505 -0.551876 -0.0658112 -0.831325
-21.2339 15.8878 -8.30961 -0.474701 -0.04599 -0.878945
-20.8545 14.8454 -8.46175 -0.615452 -0.0945956 -0.782477
-20.8005 15.5701 -8.58536 -0.618453 -0.0704175 -0.782661
-20.3853 13.6997 -8.77234 -0.622995 0.0513245 -0.78054
-20.406 15.5014 -8.90259 -0.605198 -0.0671881 -0.793235
-19.8965 16.2307 -9.14077 -0.35732 0.0812662 -0.93044
-19.8297 15.378 -9.18958 -0.355796 -0.0649392 -0.932305
-19.9481 15.7649 -9.15528 -0.405832 -0.00545798 -0.913931
-20.42 16.938 -8.83245 -0.473267 0.0743099 -0.877779
-20.3936 17.2838 -8.81757 -0.434091 0.0676704 -0.898324
-20.2976 17.8229 -8.81503 -0.336028 0.0995237 -0.936579
-19.6496 17.4233 -8.99811 -0.120835 0.162911 -0.979213
-19.9448 17.5972 -8.93897 -0.202907 0.138297 -0.969383
-19.7276 17.9109 -8.90579 0.0596504 0.179559 -0.981937
-19.8413 19.1722 -8.74588 0.076029 0.155596 -0.984891
-19.8603 18.6815 -8.80626 -0.0151813 0.105787 -0.994273
-19.7249 19.2923 -8.69496 0.416077 0.254098 -0.873106
-19.5122 18.5245 -8.74801 0.514948 0.231025 -0.825503
-19.4938 19.0377 -8.62392 0.559853 0.212413 -0.800903
-19.6924 18.6805 -8.78585 0.0740638 0.129823 -0.988767
-19.1958 18.9189 -8.35725 0.688613 0.271342 -0.672448
-19.3414 19.1947 -8.41557 0.6562 0.273702 -0.703199
-19.0126 18.4883 -8.35638 0.717613 0.31601 -0.62062
-18.7294 18.031 -8.22159 0.809152 0.341086 -0.47847
-18.4719 17.4774 -7.82461 0.938328 0.345733 -0.00298894
-18.3406 16.9564 -7.72373 0.900876 0.250936 0.354194
-17.927 14.4839 -7.26803 0.854484 0.186271 0.484933
-18.0512 14.2006 -6.97378 0.772384 0.194919 0.604508
-17.8396 13.9534 -7.20833 0.844747 0.225542 0.485318
-18.0649 13.7077 -6.81546 0.57023 0.233475 0.787609
-17.5495 12.6998 -7.16461 0.84402 0.0603069 0.532909
-17.8128 12.9332 -6.79644 0.69609 0.0314622 0.717265
-17.689 12.4088 -6.95205 0.766709 -0.0720399 0.63794
-17.7178 11.8307 -7.06767 0.686276 -0.160238 0.709471
-17.5936 10.7962 -7.44928 0.856874 -0.0316174 0.514555
-17.6973 10.5876 -7.2764 0.762356 -0.0229752 0.646749
-17.4793 10.0065 -7.77174 0.937452 -0.024776 0.347232
-17.6402 9.40944 -7.48928 0.906389 -0.0749611 0.415741
-17.6692 9.73116 -7.36693 0.84573 -0.100283 0.524103
-17.9855 10.3435 -6.99039 0.629038 -0.0282728 0.77686
-17.9408 9.69244 -7.05757 0.638296 -0.0440947 0.768527
-17.7425 10.1493 -7.21492 0.765752 -0.0186683 0.642866
-17.9468 11.2817 -6.96228 0.658097 -0.0646423 0.750153
-18.3828 10.3982 -6.75988 0.430036 -0.01538 0.902681
-18.1597 9.94596 -6.8855 0.493898 -0.0256565 0.869141
-18.5269 9.48394 -6.70738 0.418921 0.00119117 0.908022
-19.0127 8.80119 -6.49667 0.383688 0.0143223 0.923352
-19.5212 9.6659 -6.36197 0.296634 0.0457696 0.953894
-19.5835 8.36202 -6.28047 0.309146 0.0488905 0.949757
-19.9517 7.92126 -6.11632 0.319229 0.0775621 0.944498
-20.7997 7.56294 -5.81004 0.312573 0.0965377 0.944976
-20.196 8.32203 -6.07726 0.294197 0.100166 0.950481
-21.2371 8.16827 -5.69989 0.465058 0.0923175 0.880454
-21.6407 7.94675 -5.43806 0.503709 0.0621444 0.861635
-21.288 6.57603 -5.55877 0.370979 0.0578854 0.926835
-22.2111 5.87129 -5.07044 0.439674 0.0582704 0.896265
-22.6807 6.20658 -4.85315 0.42386 0.0202609 0.905501
-22.8613 5.74426 -4.76185 0.402904 0.0330362 0.914646
-23.2094 6.28148 -4.61436 0.405655 -0.00271077 0.914022
-22.3409 7.03048 -4.99268 0.478775 -0.0981958 0.872429
-22.0114 7.77649 -5.18956 0.52007 0.0443805 0.85297
-22.417 8.22802 -4.97587 0.472511 0.0631916 0.879057
-22.6452 8.9533 -4.88079 0.44468 0.0192998 0.895482
-22.2154 8.99979 -5.1088 0.485982 0.0104174 0.873907
-22.5581 10.0631 -4.95271 0.349155 0.0328004 0.936491
-22.8038 9.28325 -4.81736 0.363398 0.0432566 0.930629
-23.6838 10.4629 -4.72462 0.0426802 0.129837 0.990616
-23.1773 11.0872 -4.84202 0.100549 0.109128 0.988929
-23.3131 11.7013 -4.90765 0.0248654 0.143903 0.989279
-24.0911 10.1623 -4.68569 -0.0732187 0.159797 0.984431
-24.0812 11.0073 -4.83302 -0.192116 0.202553 0.960241
-24.4704 10.6246 -4.83462 -0.230281 0.207691 0.950702
-23.8827 12.0744 -5.046 -0.294389 0.266721 0.917712
-24.1301 11.3341 -4.91413 -0.186711 0.221344 0.957155
-24.1601 12.0964 -5.15888 -0.391281 0.296927 0.871053
-23.7389 13.0416 -5.22649 -0.418121 0.199988 0.886104
-23.4958 13.0693 -5.12169 -0.397378 0.204934 0.894479
-23.8377 13.2908 -5.34731 -0.56396 0.275146 0.778616
-23.4592 13.7737 -5.27937 -0.474114 0.299616 0.827917
-23.3326 14.4332 -5.51794 -0.554448 0.376113 0.742379
-23.5601 14.7493 -5.85121 -0.725654 0.308888 0.614828
-23.4726 15.4527 -6.06088 -0.767728 0.264467 0.583653
-23.8073 15.08 -6.56685 -0.950691 0.252475 0.180118
-23.6863 15.5608 -6.54507 -0.953606 0.228921 0.195528
-23.6724 15.7959 -6.88358 -0.975511 0.216566 0.0384489
-23.6642 15.7699 -7.09276 -0.97492 0.186289 -0.121771
-23.6693 15.5928 -7.21904 -0.948785 0.157569 -0.273822
-23.5966 16.1092 -7.10307 -0.962564 0.217661 -0.161534
-23.5578 15.9289 -7.37121 -0.922052 0.175483 -0.345002
-23.4868 16.3544 -7.30898 -0.918846 0.248709 -0.306375
-23.4142 16.1832 -7.57907 -0.871037 0.188185 -0.453742
-23.2109 16.9564 -7.49738 -0.874639 0.30351 -0.378006
-23.3813 16.5949 -7.39709 -0.902698 0.303607 -0.304893
-23.2363 17.1073 -7.28388 -0.928882 0.329387 -0.16936
-23.3044 16.4953 -7.63147 -0.841615 0.263127 -0.471645
-23.0764 17.1713 -7.62255 -0.827331 0.269186 -0.493014
-23.476 15.8716 -7.56377 -0.865117 0.115003 -0.488208
-23.6187 15.5155 -7.36932 -0.900018 0.119201 -0.419237
-23.7565 15.1801 -7.12987 -0.95046 0.162274 -0.265127
-23.1755 16.2366 -7.87798 -0.637687 0.15127 -0.755296
-22.972 16.0059 -8.0528 -0.467038 0.0422872 -0.883225
-23.2334 15.8692 -7.86806 -0.677769 0.0671153 -0.732206
-22.9566 15.5979 -8.06079 -0.429845 -0.00960939 -0.902852
-22.7612 15.5467 -8.13599 -0.283968 -0.0283435 -0.958415
-22.5446 15.4297 -8.16894 -0.122358 -0.0783231 -0.989391
-22.5331 15.905 -8.19049 -0.174469 -0.0120259 -0.984589
-22.3831 15.8302 -8.20644 -0.0478026 -0.00351052 -0.998851
-22.2726 15.5061 -8.18889 0.0127888 -0.0958505 -0.995314
-21.659 15.9165 -8.21152 0.000629633 -0.0752293 -0.997166
-21.6617 15.2306 -8.14302 -0.0847736 -0.0993059 -0.991439
-21.4513 15.2199 -8.16617 -0.291512 -0.099802 -0.951347
-21.3021 16.2677 -8.30166 -0.309623 -0.0374355 -0.950122
-21.3746 16.5926 -8.28145 -0.162383 -0.00997691 -0.986677
-21.2961 17.27 -8.3269 -0.343302 -0.0275454 -0.938821
-21.4558 17.0789 -8.26797 -0.249067 -0.0291796 -0.968047
-21.444 17.6861 -8.29383 -0.239625 -0.0207737 -0.970643
-21.1334 17.8166 -8.39905 -0.385558 -0.00920965 -0.922638
-20.7533 16.9331 -8.62688 -0.534037 0.0340369 -0.844776
-20.7655 16.5247 -8.63963 -0.567669 0.0294954 -0.822728
-21.1148 16.713 -8.39893 -0.529089 0.00674088 -0.84854
-20.8982 18.3281 -8.5027 -0.39219 0.0245362 -0.919557
-20.6075 18.3204 -8.6316 -0.382566 0.0752445 -0.920859
-20.7933 18.0366 -8.56746 -0.45471 0.0394876 -0.889764
-20.7223 18.796 -8.55321 -0.348737 0.0457498 -0.936103
-20.3637 18.2932 -8.7319 -0.327956 0.0994817 -0.93944
-20.3263 18.953 -8.68536 -0.323024 0.0760267 -0.943332
-20.1124 18.5149 -8.78383 -0.228102 0.0951271 -0.968979
-20.2443 19.3026 -8.68225 -0.251249 0.100925 -0.962647
-19.9923 19.0976 -8.7547 -0.133851 0.108583 -0.985035
-20.1293 19.7908 -8.59604 0.0295697 0.347832 -0.937091
-19.9257 19.5261 -8.68455 0.151859 0.30151 -0.941292
-20.1156 19.5059 -8.68006 -0.159589 0.180368 -0.970566
-19.9451 19.838 -8.55276 0.231988 0.451858 -0.861397
-19.7654 19.6759 -8.56324 0.414037 0.392249 -0.82141
-19.623 19.7127 -8.43585 0.633307 0.51359 -0.578919
-19.621 19.4393 -8.58372 0.566964 0.328733 -0.755306
-19.4377 19.437 -8.41898 0.713636 0.371993 -0.593586
-19.1423 19.0593 -8.07113 0.9008 0.369917 -0.227422
-18.7976 18.2736 -8.04624 0.895176 0.399099 -0.198446
-18.6058 17.8251 -8.05547 0.92061 0.388609 -0.038207
-18.3716 16.5917 -7.38619 0.903433 0.268661 0.334112
-18.2518 15.6955 -7.10538 0.699314 0.221507 0.679628
-18.1301 15.1382 -7.12673 0.75002 0.128152 0.648882
-18.2264 14.9643 -6.99256 0.633506 0.119245 0.764494
-18.4225 15.2852 -6.86896 0.598064 0.124433 0.791729
-18.247 14.4139 -6.8579 0.539788 0.192916 0.819398
-18.5153 14.7407 -6.75875 0.471381 0.149068 0.86924
-18.5368 14.0253 -6.60589 0.429777 0.212775 0.877507
-18.4576 13.1869 -6.4205 0.437009 0.190365 0.879082
-18.1225 13.4062 -6.66378 0.480261 0.232394 0.845779
-18.0618 12.9607 -6.59289 0.50425 -0.0197009 0.863333
-18.0133 12.4595 -6.66034 0.595094 -0.109866 0.796111
-18.2909 11.3763 -6.7584 0.339151 -0.0543804 0.939159
-18.7102 11.0564 -6.62498 0.306782 -0.013013 0.951691
-18.781 9.6735 -6.60281 0.357523 0.000353087 0.933904
-20.7883 8.79648 -5.95717 0.296208 0.0957882 0.950308
-20.7392 8.13505 -5.90084 0.274032 0.113075 0.95505
-20.9802 9.1457 -5.89716 0.48436 0.0413518 0.873891
-21.3438 8.58998 -5.66762 0.531827 0.0316377 0.846262
-21.5807 9.22549 -5.5112 0.575057 -0.00143324 0.818112
-21.4467 9.71738 -5.59034 0.593834 -0.0269945 0.804135
-21.8597 8.7011 -5.32122 0.524843 0.0130437 0.851099
-21.4652 7.09626 -5.48208 0.486715 0.0187837 0.873359
-22.0605 9.79718 -5.1899 0.506985 -0.0246878 0.861601
-22.2679 10.3163 -5.08185 0.407617 0.00455781 0.913142
-22.6509 11.1201 -4.95421 0.303388 0.037086 0.952145
-22.9255 10.4021 -4.84187 0.293401 0.0570416 0.954286
-22.6736 11.9494 -4.9961 0.163618 0.0741281 0.983735
-22.9255 12.1122 -4.97481 0.0780198 0.113171 0.990508
-23.6967 11.366 -4.85847 -0.0666052 0.178897 0.981611
-23.6598 12.0494 -4.99008 -0.135885 0.156079 0.978353
-23.1687 12.4405 -4.99257 -0.0698237 0.00594561 0.997542
-22.4 12.4677 -5.04014 0.117249 -0.0870351 0.989281
-22.7154 12.7215 -4.98023 0.0361976 -0.0848712 0.995734
-22.7162 13.2017 -4.95326 -0.060994 0.049715 0.996899
-23.1593 12.9221 -5.00602 -0.153708 0.0316606 0.987609
