-24.2212 4.43002 -18.9675 -0.695093 -0.193267 -0.692455
-25.1683 5.48324 -17.6693 -0.931311 -0.127265 -0.341269
-24.9718 5.02929 -17.9663 -0.899265 -0.153444 -0.409605
-24.84 4.09562 -17.8785 -0.858341 -0.366848 -0.35871
-24.9878 4.2333 -17.5868 -0.90665 -0.331863 -0.260486
-24.9301 4.42107 -17.8245 -0.904399 -0.163377 -0.394171
-24.6059 3.61513 -17.8297 -0.819805 -0.479079 -0.313693
-24.8009 3.66791 -17.3077 -0.869846 -0.44163 -0.219845
-24.4216 3.70242 -18.2931 -0.75628 -0.493875 -0.429101
-24.1632 3.56969 -18.4902 -0.623185 -0.612796 -0.485923
-24.0476 3.82962 -18.8605 -0.585042 -0.423217 -0.691819
-24.2373 3.26446 -17.997 -0.655543 -0.630162 -0.416125
-24.644 3.36494 -17.1922 -0.800042 -0.584203 -0.136526
-25.0489 3.98768 -16.7157 -0.89027 -0.437305 -0.127216
-25.0529 3.91972 -16.2597 -0.899934 -0.431688 -0.0613513
-24.8592 3.56406 -16.4446 -0.860395 -0.50958 -0.00691837
-25.2444 4.38791 -15.377 -0.921152 -0.388 0.0305676
-24.453 2.58333 -14.2677 -0.698919 -0.619039 -0.358194
-24.7667 2.91329 -13.8233 -0.870266 -0.486388 -0.077875
-24.722 2.81119 -13.0885 -0.866267 -0.492913 0.081356
-25.0524 3.50446 -13.4408 -0.95535 -0.289954 0.0568576
-24.5403 2.70765 -12.596 -0.82372 -0.464927 0.324544
-24.4889 3.07654 -12.0316 -0.839872 -0.355341 0.410303
-23.8078 5.19572 -10.4597 -0.544499 -0.149016 0.825418
-24.096 5.68011 -10.5664 -0.506614 -0.104413 0.855827
-23.4253 4.89925 -10.3224 -0.389133 -0.0836493 0.917376
-23.1757 5.84865 -10.3215 -0.0669475 0.0969385 0.993036
-23.5462 4.18265 -10.468 -0.5417 -0.210591 0.813764
-23.2537 3.37313 -10.6388 -0.379373 -0.417975 0.825454
-22.7283 2.90175 -10.6801 -0.225606 -0.455756 0.861039
-20.1872 2.95423 -10.8961 0.393414 -0.454631 0.799085
-19.1862 3.32955 -11.3045 0.544784 -0.428248 0.720981
-19.3129 3.95392 -10.902 0.389062 -0.370443 0.843447
-16.9902 3.09801 -14.011 0.726459 -0.60177 0.331858
-16.685 3.68908 -13.6802 0.762478 -0.490443 0.42201
-16.448 4.03358 -13.5856 0.698636 -0.47092 0.538648
-15.6205 4.1272 -14.5515 0.735791 -0.524052 0.42893
-16.0107 3.36242 -14.9579 0.698873 -0.589046 0.40571
-15.5378 4.233 -17.2783 0.836417 -0.395838 -0.379103
-15.6703 4.35761 -17.5811 0.762977 -0.282155 -0.581597
-16.0872 4.75598 -18.1417 0.619674 -0.124009 -0.775001
-16.4001 5.37453 -18.4517 0.739966 -0.332384 -0.584784
-16.1168 5.76286 -18.3223 0.770379 -0.242587 -0.589634
-15.9045 6.56785 -18.3296 0.794839 -0.213411 -0.568055
-16.6783 5.62171 -19.0765 0.63717 -0.244647 -0.730864
-16.4726 6.41729 -19.1323 0.67148 -0.193004 -0.715447
-16.7925 5.93185 -19.2782 0.626586 -0.252028 -0.737477
-17.2516 5.63431 -19.5211 0.57922 -0.304849 -0.756024
-16.8568 6.29798 -19.4461 0.647991 -0.231457 -0.725628
-17.5159 5.46746 -19.6303 0.541357 -0.345707 -0.766433
-17.6727 5.04474 -19.547 0.518509 -0.436719 -0.735136
-17.6239 4.83176 -19.3821 0.544022 -0.425403 -0.723237
-17.5128 4.73975 -19.2316 0.524533 -0.457762 -0.717857
-17.8731 4.53995 -19.3366 0.426458 -0.645879 -0.633225
-17.9024 4.2883 -19.1023 0.356219 -0.671974 -0.649275
-18.1946 4.94619 -19.8314 0.455778 -0.463792 -0.759713
-18.7973 4.5689 -19.7105 0.0920671 -0.753612 -0.65084
-19.8309 4.69324 -19.7613 -0.243742 -0.842448 -0.48049
-20.3405 4.87429 -19.7654 -0.325854 -0.837221 -0.439182
-20.7094 4.99123 -19.6348 -0.405415 -0.851527 -0.332476
-20.6656 4.83434 -19.0028 -0.4581 -0.875573 -0.153352
-21.3482 4.9691 -19.1322 0.380583 -0.611789 -0.693449
-22.2549 4.54087 -19.2685 0.461624 -0.713023 -0.527733
-22.5736 4.58424 -19.5167 0.162589 -0.556325 -0.814904
-22.9138 4.90995 -19.72 -0.206112 -0.311525 -0.927615
-23.5565 4.66251 -19.4766 -0.371353 -0.261344 -0.890952
-24.723 4.32809 -18.2123 -0.869905 -0.169759 -0.463084
-24.5895 4.09413 -18.3566 -0.818261 -0.314165 -0.481403
-23.8472 3.52062 -18.762 -0.383335 -0.592466 -0.708547
-24.3387 3.08929 -17.2894 -0.595662 -0.796687 -0.102355
-24.4572 3.25852 -17.5273 -0.693121 -0.694853 -0.191732
-24.6458 3.27257 -16.482 -0.698833 -0.714981 -0.0208531
-24.5272 3.20257 -16.2196 -0.510329 -0.854737 0.0948091
-24.9619 3.73737 -15.7535 -0.850432 -0.525863 0.0152574
-24.7791 3.49096 -15.7477 -0.756136 -0.651219 0.0645912
-24.6368 3.37661 -15.5455 -0.629588 -0.768997 0.110739
-24.1835 3.12013 -15.6541 -0.427468 -0.903577 0.0286361
-24.2584 3.07472 -15.3199 -0.361499 -0.843433 -0.397417
-23.3386 2.4062 -14.8152 0.161343 -0.830627 -0.532942
-23.5946 2.3441 -14.7593 -0.102503 -0.844814 -0.52515
-23.8971 2.82778 -15.1828 -0.145378 -0.678213 -0.720342
-24.2024 2.69701 -14.8495 -0.50458 -0.700088 -0.505249
-23.887 2.20562 -14.4494 -0.460195 -0.782746 -0.418961
-24.2876 2.21501 -13.7858 -0.659113 -0.717097 -0.226589
-23.878 1.8893 -13.6805 -0.309239 -0.937676 -0.15854
-23.5614 1.91654 -13.7464 0.420778 -0.876896 -0.232377
-23.576 1.82232 -13.4094 -0.104644 -0.972474 -0.208192
-23.8834 1.81972 -13.0657 -0.453943 -0.890182 -0.0388757
-23.4991 1.72522 -13.0967 -0.2283 -0.969355 -0.0907183
-24.1451 2.01754 -13.1592 -0.670411 -0.731505 0.124292
-24.4191 2.30619 -13.1163 -0.819388 -0.541691 0.187549
-24.2491 2.27768 -12.5639 -0.74552 -0.577414 0.332857
-24.212 2.73973 -11.8653 -0.73494 -0.514933 0.441257
-24.239 3.07887 -11.6153 -0.693142 -0.451076 0.562214
-23.655 2.21984 -11.6364 -0.659158 -0.549938 0.512913
-23.6168 2.54495 -11.3201 -0.530149 -0.480345 0.69872
-23.8946 4.09386 -10.7381 -0.661116 -0.300009 0.687692
-23.5348 3.28384 -10.8436 -0.47622 -0.401535 0.782294
-23.2861 2.4103 -11.1742 -0.391002 -0.484106 0.782789
-22.7816 2.461 -10.9507 -0.280274 -0.516859 0.80889
-22.4393 2.39385 -10.9276 -0.135778 -0.563519 0.814869
-20.3939 2.71292 -10.9762 0.282936 -0.796833 0.533858
-19.7207 2.87493 -11.202 0.424111 -0.705842 0.567377
-20.6582 2.52256 -11.135 0.252074 -0.832089 0.494051
-21.3447 2.26099 -11.2643 0.251971 -0.910866 0.326855
-19.1435 2.98806 -11.6642 0.499996 -0.773193 0.390099
-18.4292 3.00484 -12.3308 0.3733 -0.833139 0.408075
-17.9084 3.00839 -12.8571 0.533969 -0.705359 0.466203
-16.6532 3.35657 -14.1771 0.538503 -0.653681 0.53171
-16.0071 3.7993 -14.3473 0.674306 -0.575946 0.462166
-16.2689 3.04838 -14.9997 0.611098 -0.693328 0.381911
-16.5434 2.99191 -14.7115 0.491191 -0.724948 0.482889
-15.7721 3.31957 -15.7607 0.872133 -0.486788 0.0492084
-15.8121 3.22278 -16.2143 0.860473 -0.503149 -0.0801776
-16.0425 2.98417 -16.7294 0.726386 -0.645361 -0.236372
-15.9826 3.41535 -17.2922 0.745003 -0.459639 -0.483427
-16.8275 4.92101 -18.6208 0.600422 -0.306308 -0.738694
-16.5001 5.35444 -18.5831 0.820492 -0.4539 -0.347517
-16.1087 6.10059 -18.4684 0.847814 -0.354257 -0.394605
-17.2172 5.35169 -19.3727 0.572542 -0.319523 -0.75505
-17.154 5.24316 -19.2652 0.549498 -0.384686 -0.741666
-17.1178 4.91727 -19.0661 0.583518 -0.438053 -0.683824
-17.4447 4.66116 -19.1181 0.515461 -0.500312 -0.695693
-18.0785 4.07261 -18.9189 0.256976 -0.840677 -0.476681
-17.777 4.2337 -18.9245 0.4745 -0.760011 -0.444108
-17.8665 4.00766 -18.7726 0.297693 -0.509678 -0.807222
-18.2694 4.3046 -19.286 0.164738 -0.742388 -0.649401
-19.6395 4.46172 -19.4098 -0.269184 -0.865056 -0.423342
-18.9145 4.22585 -19.3012 -0.164788 -0.837679 -0.52071
-20.2778 4.73485 -19.5032 -0.349343 -0.893546 -0.28202
-20.0694 4.60726 -19.3095 -0.397617 -0.906344 -0.142976
-19.6772 4.40641 -19.1169 -0.52644 -0.849748 -0.0280755
-20.0212 4.5481 -18.9912 -0.355974 -0.933425 -0.0447178
-21.0734 4.91386 -18.9886 -0.079537 -0.85339 -0.51517
-21.917 4.60185 -19.102 0.296572 -0.568523 -0.767351
-23.0107 4.2395 -19.3796 0.0884925 -0.517818 -0.850902
-23.3601 4.47004 -19.47 -0.273727 -0.352544 -0.894866
-23.8956 4.69893 -19.3083 -0.571745 -0.192969 -0.797415
-23.9337 4.28159 -19.1522 -0.598317 -0.305164 -0.740872
-24.3752 4.08939 -18.6685 -0.718238 -0.329646 -0.612754
-23.4715 3.49395 -18.8609 0.140224 -0.733397 -0.665181
-23.344 2.97014 -17.8107 0.217494 -0.914425 -0.341355
-23.0453 3.01953 -17.7786 0.226492 -0.973858 -0.017383
-23.5275 3.02317 -18.1006 0.000130514 -0.97676 -0.214336
-23.6916 3.16753 -18.3714 -0.168696 -0.904756 -0.391098
-23.9656 2.9867 -17.6561 -0.259203 -0.941657 -0.2147
-24.0158 3.11297 -18.0157 -0.504506 -0.803255 -0.316632
-23.8922 3.0594 -16.5359 0.122986 -0.982041 0.143076
-23.9408 3.03867 -15.4145 -0.0585225 -0.968867 -0.240567
-23.4315 3.03043 -15.3979 0.0924493 -0.626077 -0.774261
-23.0725 3.21406 -15.4789 0.297723 -0.647167 -0.701809
-22.7321 3.24684 -15.3115 0.538517 -0.567725 -0.622646
-23.0444 2.69242 -15.0187 0.395084 -0.748718 -0.532288
-23.3007 2.15726 -14.1939 0.353365 -0.873326 -0.335312
-23.0217 2.42863 -14.6374 0.587554 -0.771458 -0.244198
-23.6478 2.01797 -14.1747 0.121028 -0.951603 -0.282495
-23.1638 2.13375 -13.8098 0.369323 -0.829501 -0.418961
-23.3434 1.65634 -12.7233 0.0486504 -0.986427 -0.156826
-22.9497 1.69903 -12.469 0.181017 -0.983247 -0.0214026
-23.3731 1.82341 -12.0107 -0.249267 -0.911454 0.327289
-23.8664 1.99904 -12.2986 -0.639906 -0.6682 0.379512
-23.9665 3.04012 -11.3131 -0.705539 -0.369395 0.604782
-24.2799 3.52203 -11.3956 -0.680842 -0.324483 0.656632
-22.9273 2.17121 -11.2178 -0.26351 -0.626518 0.733511
-23.1597 1.93931 -11.6261 -0.285868 -0.784547 0.550241
-21.6217 2.44032 -10.8758 0.00240195 -0.636653 0.771146
-21.6997 2.31108 -11.0176 0.166834 -0.871582 0.460989
-20.9625 2.32784 -11.7519 0.263007 -0.964255 0.0322293
-20.5922 2.43759 -11.5079 0.260061 -0.944994 0.198379
-20.0696 2.55431 -11.4472 0.358337 -0.843127 0.400913
-19.1597 2.8017 -12.1317 0.41248 -0.878973 0.239303
-19.7946 2.559 -11.9444 0.389697 -0.912352 0.125502
-18.8954 2.8271 -12.5581 0.146562 -0.967243 0.20727
-18.6011 2.84136 -12.6209 0.310443 -0.876965 0.36682
-18.1612 2.78767 -13.2821 0.233287 -0.953646 0.190094
-17.4074 2.79556 -14.0132 0.381849 -0.881917 0.27643
-17.689 2.84925 -13.5209 0.442576 -0.816443 0.370873
-17.2878 2.71395 -14.5022 0.424678 -0.806409 0.411525
-16.129 2.80071 -16.0931 0.71598 -0.689285 0.110719
-16.3744 2.59962 -16.5172 0.613544 -0.788009 -0.0510377
-16.5449 2.4733 -16.0878 0.404097 -0.914716 -0.000969989
-16.463 2.63897 -16.8982 0.610208 -0.697061 -0.376499
-16.4189 2.94807 -17.3808 0.636328 -0.563428 -0.526911
-16.0229 4.07903 -17.8782 0.692689 -0.212492 -0.689224
-16.5947 4.37004 -18.3913 0.42409 -0.265985 -0.865678
-16.7855 4.64249 -18.5209 0.364702 -0.261994 -0.893505
-17.1556 3.38617 -18.2875 0.396569 -0.384557 -0.833576
-17.1503 4.60464 -18.6924 0.618779 -0.613986 -0.490035
-16.9106 4.95287 -18.8714 0.720588 -0.540818 -0.4339
-16.5363 5.58248 -18.9165 0.768837 -0.415005 -0.486477
-17.4481 4.43981 -18.8701 0.581539 -0.695221 -0.422469
-18.7207 4.08918 -19.1207 0.0277199 -0.810355 -0.585283
-19.2685 4.13387 -18.9784 -0.503951 -0.863307 -0.0270978
-20.3175 4.66816 -19.0119 -0.393322 -0.918685 -0.0362811
-20.7121 4.77781 -18.7442 0.138127 -0.921004 -0.364242
-21.1686 4.59087 -18.7393 0.440056 -0.656115 -0.613077
-20.9231 4.76571 -18.7598 0.500794 -0.742511 -0.44484
-22.0582 4.05897 -18.7393 0.32933 -0.586461 -0.740004
-21.5866 4.61796 -18.9937 0.293982 -0.568722 -0.768199
-23.0028 3.91112 -19.1206 0.22301 -0.626066 -0.7472
-23.2358 3.38747 -18.6358 0.321599 -0.765682 -0.55705
-22.356 4.11631 -18.9417 0.369791 -0.62402 -0.688371
-22.5604 3.65831 -18.6085 0.380234 -0.772802 -0.508134
-21.7093 4.07675 -18.5152 0.452963 -0.811527 -0.369119
-23.0228 3.39097 -18.4652 0.372094 -0.795046 -0.479007
-22.5937 3.45461 -18.1168 0.458106 -0.782528 -0.42165
-23.2266 2.99585 -17.192 0.109618 -0.978679 0.173698
-23.2149 3.2315 -16.6452 0.215869 -0.909834 0.354405
-23.7273 3.04167 -16.8355 0.176171 -0.940478 0.29063
-24.0002 3.06699 -16.1422 -0.0580091 -0.993556 0.0973766
-24.2415 3.02491 -16.5745 -0.234878 -0.965101 0.115812
-24.3187 3.13024 -15.9404 -0.320082 -0.941141 0.108635
-22.0249 3.21515 -14.6226 0.229837 -0.622673 -0.747966
-22.1226 3.35887 -14.7563 0.1214 -0.623513 -0.77233
-22.8848 3.37319 -16.4636 0.322128 -0.944357 0.0665092
-22.2479 3.72199 -16.2145 0.503505 -0.863991 -0.00117499
-22.599 3.50998 -16.1178 0.455269 -0.888941 0.0501373
-22.2168 3.72656 -15.8565 0.53684 -0.839328 -0.08562
-22.486 3.55047 -15.6183 0.492203 -0.864205 -0.104339
-22.4565 3.54731 -15.3277 0.709651 -0.571408 -0.412175
-22.6134 2.92429 -14.8389 0.71674 -0.528047 -0.455466
-22.658 2.53231 -14.1905 0.394989 -0.785903 -0.475752
-23.0306 2.13955 -13.7577 0.0771541 -0.77124 -0.631851
-22.4781 2.25671 -13.8732 0.1208 -0.809384 -0.574722
-22.9792 1.74603 -13.0668 0.328106 -0.928583 -0.173438
-22.448 1.91481 -11.7888 0.409843 -0.910878 -0.0482776
-22.8286 1.82155 -11.8175 -0.0248324 -0.909454 0.415062
-23.0513 1.72918 -12.1037 -0.0355766 -0.948491 0.314799
-22.5405 2.04512 -11.3275 -0.0144852 -0.839224 0.543594
-22.0151 2.16759 -11.1864 0.163759 -0.925926 0.34036
-21.6771 2.15633 -11.4838 0.230704 -0.969513 -0.0825854
-19.9354 2.53056 -11.7122 0.381258 -0.897428 0.221959
-19.5101 2.71139 -12.446 0.21249 -0.965591 -0.149938
-19.1124 2.84151 -12.8097 -0.0973371 -0.981786 -0.163161
-20.1301 2.57238 -12.293 0.118979 -0.945934 -0.301751
-19.2918 2.92866 -13.1014 -0.0996922 -0.954335 -0.281614
-16.6637 2.54926 -15.4341 0.445221 -0.828029 0.340802
-16.2546 2.8271 -15.4651 0.576578 -0.768951 0.276173
-16.9084 2.33795 -16.0627 0.208919 -0.977867 -0.0113569
-17.0475 2.32256 -16.6215 -0.00452336 -0.99669 -0.0811642
-16.9898 2.5845 -14.9982 0.19804 -0.939062 0.280969
-17.4103 2.5162 -15.1129 -0.10666 -0.968121 0.226641
-17.6423 2.63964 -14.6356 -0.0416445 -0.981318 0.187833
-17.726 2.51547 -15.3499 -0.239707 -0.951288 0.193885
-17.3336 2.3405 -15.8456 -0.136694 -0.984094 0.113458
-17.8268 2.46883 -15.7293 -0.298272 -0.951562 0.0745865
-17.6534 2.3699 -16.4845 -0.338691 -0.938631 -0.0652752
-18.2278 2.59633 -16.1888 -0.421292 -0.906873 0.00971756
-17.4944 2.43961 -17.1203 0.00528583 -0.948074 -0.318005
-16.8589 2.66845 -17.401 0.218743 -0.886386 -0.408008
-16.5114 3.65231 -18.0742 0.521175 -0.507042 -0.686502
-17.1478 2.86838 -17.8396 0.339475 -0.637002 -0.692087
-17.5464 2.78088 -17.8132 0.0735256 -0.771237 -0.632287
-17.9555 2.80725 -17.7698 -0.28726 -0.890639 -0.352482
-18.1074 3.39407 -18.443 -0.089823 -0.6449 -0.758971
-17.7303 3.46779 -18.4926 0.132367 -0.447039 -0.884667
-17.4759 3.96574 -18.631 0.295854 -0.343307 -0.891409
-18.1568 3.85366 -18.7142 -0.0671687 -0.455846 -0.88752
-19.0044 3.38336 -18.0785 -0.327068 -0.69969 -0.635186
-18.5995 3.62398 -18.4629 -0.259967 -0.666867 -0.698359
-18.9771 3.86246 -18.5316 -0.410604 -0.521711 -0.747812
-18.8797 3.99365 -18.6653 -0.249719 -0.664875 -0.703975
-18.3568 3.98624 -18.8565 -0.0106349 -0.9411 -0.337962
-19.1482 4.08622 -18.6506 -0.442351 -0.750936 -0.490327
-19.3928 4.19797 -18.6212 -0.497014 -0.7737 -0.392894
-19.5132 4.19556 -18.4542 -0.375961 -0.62887 -0.680571
-19.7196 4.42425 -18.6731 -0.454544 -0.849095 -0.269125
-20.3414 4.6534 -18.5372 -0.320208 -0.940644 -0.112495
-20.5386 4.64204 -18.3837 -0.289493 -0.727428 -0.622127
-20.139 4.42409 -18.3481 -0.387422 -0.629799 -0.673244
-20.0557 4.53863 -18.5636 -0.373632 -0.78937 -0.487128
-19.8309 3.99249 -18.1412 -0.394312 -0.662609 -0.636763
-20.3968 4.08275 -17.7777 -0.409355 -0.714258 -0.567682
-20.9 4.54809 -18.3281 0.294991 -0.823217 -0.485071
-21.3572 4.23384 -18.4327 0.474516 -0.830441 -0.291895
-22.2272 3.68271 -18.2346 0.44353 -0.860911 -0.249225
-21.713 3.91159 -17.8704 0.460731 -0.876771 -0.137837
-21.8762 3.7259 -17.336 0.495106 -0.861749 -0.110719
-21.795 3.7314 -16.9895 0.450071 -0.888188 0.0925167
-22.1607 3.59003 -17.783 0.524704 -0.831923 -0.180526
-22.7675 3.09094 -17.6261 0.46576 -0.837949 -0.284445
-23.6461 3.11241 -16.0136 0.121485 -0.991742 0.0411101
-22.6559 3.14224 -17.0726 0.206087 -0.887519 0.412115
-22.3303 3.28372 -17.0237 0.343368 -0.866743 0.361739
-22.2561 3.37315 -16.8588 0.607862 -0.722484 0.329424
-22.3762 3.60107 -16.3911 0.514969 -0.772127 0.372325
-22.0526 3.79091 -15.9859 -0.0302852 -0.995187 0.0931924
-22.2973 3.64097 -15.1342 0.712234 -0.553498 -0.431698
-22.8727 2.49235 -14.3179 0.565278 -0.798824 -0.205768
-22.329 2.83724 -14.3923 0.167274 -0.633103 -0.755778
-22.0505 2.7835 -14.2767 0.216922 -0.651259 -0.727191
-22.0192 2.4768 -13.9134 0.413872 -0.739241 -0.531256
-21.5461 2.71197 -13.263 0.584894 -0.811109 0.000973398
-22.1266 2.27288 -13.0826 0.605822 -0.795286 -0.0223685
-21.9476 2.42087 -12.5258 0.539499 -0.840558 -0.0490221
-19.4851 3.32368 -13.8358 -0.0630835 -0.855342 -0.514209
-22.3833 2.09447 -13.3558 0.536037 -0.840578 -0.0780589
-22.6285 1.8503 -12.4398 0.597466 -0.788613 -0.145339
-19.6281 3.44495 -16.4542 -0.725155 -0.688394 -0.0162487
-22.0531 2.08635 -11.7815 0.346466 -0.928582 -0.13303
-21.7481 2.20364 -11.8066 0.228085 -0.934281 -0.274036
-22 2.34225 -12.2654 0.54413 -0.770243 -0.332637
-21.198 2.29914 -11.8777 0.128691 -0.918258 -0.374488
-18.9029 2.9174 -13.4221 -0.247753 -0.950365 -0.188213
-18.073 2.76447 -13.7243 -0.197469 -0.974832 -0.103481
-18.2045 2.78865 -14.0945 -0.293343 -0.955645 -0.0263239
-18.4657 2.88883 -14.2312 -0.363652 -0.924122 -0.117284
-19.0439 3.0182 -13.6277 -0.443384 -0.861249 -0.248314
-17.807 2.64689 -14.838 -0.340903 -0.9355 0.0928688
-19.1514 3.09079 -15.7267 -0.520395 -0.850965 0.0710463
-19.1386 3.04932 -16.3161 -0.55565 -0.830583 -0.0372027
-19.0732 3.05082 -16.7594 -0.454432 -0.884525 -0.105394
-18.3422 3.1211 -18.0868 -0.247601 -0.766532 -0.592555
-19.2613 3.60534 -18.1921 -0.437673 -0.538087 -0.72035
-19.5335 3.57159 -17.7595 -0.616089 -0.765296 -0.186429
-20.087 3.79702 -17.1145 -0.380689 -0.91463 -0.136117
-19.9115 3.87458 -17.8644 -0.36684 -0.871163 -0.326348
-20.7817 4.44071 -18.119 0.305646 -0.786885 -0.536091
-21.1502 4.21488 -18.0629 0.388059 -0.856951 -0.339184
-21.9694 3.71547 -16.5877 0.0938667 -0.994853 0.0381744
-21.736 3.75233 -15.9448 -0.0178011 -0.996978 0.0756152
-21.7692 3.79633 -15.3779 0.0918288 -0.99413 0.0572056
-22.079 3.79064 -15.5759 0.411292 -0.91149 -0.00504606
-22.1178 3.74122 -15.1611 0.201541 -0.971748 -0.122827
-21.6894 3.41424 -14.7793 0.00653891 -0.738186 -0.674565
-22.4672 2.99173 -14.6221 0.535541 -0.586688 -0.607448
-22.1471 3.54297 -14.9024 0.345317 -0.612304 -0.711224
-21.625 2.93098 -14.1529 0.538057 -0.693657 -0.478889
-21.6672 2.6676 -13.7508 0.632747 -0.728516 -0.26248
-21.284 3.08323 -13.9161 0.556146 -0.788932 -0.261321
-21.0326 3.17139 -13.7062 0.51167 -0.827647 -0.230639
-21.3699 2.80009 -13.0182 0.24531 -0.917703 -0.312481
-21.5215 2.61385 -12.5647 0.131056 -0.900206 -0.415275
-20.5817 2.47127 -11.8873 0.050163 -0.950186 -0.30762
-20.569 2.61129 -12.2969 0.174333 -0.89818 -0.403584
-20.6305 2.82817 -12.7986 0.127275 -0.897567 -0.422106
-20.2226 3.16908 -13.5463 -0.0574437 -0.844077 -0.533136
-18.9217 3.09126 -14.1764 -0.494641 -0.85205 -0.171291
-19.423 3.3994 -14.1459 -0.509117 -0.85875 -0.0578689
-19.043 3.1772 -14.5909 -0.43558 -0.886236 -0.157657
-18.1335 2.74889 -14.9929 -0.447679 -0.894113 0.012038
-18.6044 3.0044 -14.6761 -0.464189 -0.885672 0.0107001
-18.6026 2.93984 -15.2494 -0.441155 -0.849431 0.289568
-19.637 3.55238 -17.2356 -0.668164 -0.738861 -0.0874112
-19.8484 3.70171 -16.9034 -0.639254 -0.767109 -0.0538309
-20.4146 3.92914 -17.3142 -0.322939 -0.928957 -0.180968
-20.0446 3.81887 -16.1984 -0.355772 -0.929268 0.0994315
-20.6871 3.98563 -16.8731 -0.361536 -0.927779 -0.0922963
-20.7055 4.08074 -17.4347 0.00565725 -0.991196 -0.132285
-20.7918 4.21579 -17.8092 -0.077585 -0.802783 -0.591202
-20.9543 3.9875 -16.6169 0.172282 -0.98451 -0.0325526
-21.4352 3.81431 -15.8269 0.304185 -0.949492 0.0770414
-21.674 3.75788 -15.2145 0.146222 -0.957571 -0.24835
-21.7744 3.0134 -14.3629 0.353159 -0.657175 -0.665883
-21.3274 3.26802 -14.3099 0.475308 -0.717209 -0.509601
-21.1041 2.82188 -12.9418 0.235088 -0.863689 -0.445841
-21.103 2.54901 -12.4162 0.248109 -0.875143 -0.415412
-20.0708 2.94846 -13.2769 -0.213529 -0.839356 -0.499887
-20.4744 3.25515 -13.624 0.0812519 -0.979688 -0.183326
-19.8193 3.39697 -13.9138 -0.0616903 -0.942379 -0.328809
-20.4766 3.32351 -14.1909 0.0847899 -0.902059 -0.423203
-20.0905 3.72263 -14.6836 0.151324 -0.802859 -0.576644
-19.7579 3.52256 -14.3783 0.00552691 -0.960579 -0.277953
-19.3988 3.39183 -14.5982 -0.528483 -0.82396 -0.20444
-19.4921 3.51909 -14.8093 -0.503179 -0.824268 -0.259602
-18.9575 3.21792 -14.9812 -0.42283 -0.902069 -0.0865247
-19.2176 3.38038 -15.1441 -0.57422 -0.781037 0.245464
-20.346 3.99935 -15.7394 -0.274576 -0.949667 0.150798
-20.7277 4.08616 -15.4763 -0.1728 -0.984126 -0.0404545
-20.9262 4.0562 -15.9346 0.252942 -0.960613 0.115079
-21.1369 3.92426 -16.1459 0.436909 -0.895174 0.0881747
-21.4044 3.83611 -15.2667 0.362941 -0.926358 -0.100673
-21.3153 3.72137 -15.0593 0.240945 -0.717463 -0.6536
-20.6166 3.55651 -14.6197 0.194813 -0.742125 -0.641325
-20.9632 3.59029 -14.7536 0.201112 -0.77244 -0.602404
-21.4439 3.37635 -14.5693 0.25082 -0.874172 -0.415827
-21.0492 3.28468 -14.1338 0.0698706 -0.9175 -0.39155
-19.7065 3.68899 -14.9251 -0.402698 -0.869146 -0.287088
-19.9154 3.76068 -15.1083 -0.370012 -0.921201 0.120328
-20.1015 3.81189 -15.3238 -0.522056 -0.850388 -0.065552
-19.6838 3.58433 -15.4857 -0.467972 -0.866103 0.175694
-20.4444 3.95079 -15.2672 -0.207279 -0.937611 -0.279142
-20.3997 3.87605 -14.9757 -0.257855 -0.91177 -0.319667
-20.7503 4.08874 -15.7462 0.0562192 -0.995459 0.0768129
-21.0965 3.97573 -15.3007 0.261289 -0.948186 -0.180754
-20.8378 3.97122 -15.1447 0.171598 -0.749989 -0.638804
-22.336 3.28964 -17.4486 0.587699 -0.731996 -0.344662
-22.014 3.60063 -16.9843 0.622389 -0.719576 0.307964
-21.5146 4.41165 -18.8097 0.407834 -0.5552 -0.724861
-22.6989 4.06267 -19.0911 0.387159 -0.574974 -0.720772
-23.6301 1.77434 -12.471 -0.462469 -0.830442 0.310625
-22.2267 6.23008 -20.1982 -0.331561 -0.13534 -0.933676
-21.5697 6.19513 -20.3983 -0.333871 -0.232762 -0.913429
-17.9005 5.00144 -19.6775 0.469184 -0.441316 -0.764923
-17.7066 5.69123 -19.871 0.555277 -0.340921 -0.758578
-16.5496 6.69833 -19.2745 0.697404 -0.151615 -0.700458
-17.9033 4.36532 -11.7844 0.579108 -0.279317 0.765908
-22.346 7.38409 -20.1499 -0.415271 0.106589 -0.903432
-15.3448 6.9043 -17.7019 0.821647 -0.0735012 -0.565238
-24.8721 6.25208 -18.5049 -0.83605 -0.0198091 -0.548295
-19.8334 7.68475 -20.9621 -0.0981062 0.168974 -0.980726
-20.1904 7.1041 -21.0084 -0.0359822 -0.00894172 -0.999312
-14.7773 8.44931 -16.3515 0.879975 0.291209 -0.375288
-15.874 9.78825 -17.1793 0.789962 0.458797 -0.406774
-16.3278 10.8274 -16.9774 0.723327 0.320485 -0.611626
-22.4823 11.8752 -17.7888 -0.220396 0.265609 -0.938551
-25.952 12.3048 -15.4895 -0.985387 -0.166577 0.0355706
-25.8578 11.9953 -15.7664 -0.969678 -0.139069 -0.200958
-25.8768 11.8899 -15.537 -0.993671 -0.112324 -0.000891925
-20.3522 14.3437 -16.7576 -0.534954 0.831427 -0.150177
-20.968 14.0481 -16.9185 0.219501 0.791551 -0.570322
-21.9258 14.5265 -17.1906 0.631589 0.585179 -0.508586
-22.4435 15.1762 -17.1467 0.642394 0.513663 -0.568753
-22.5939 15.1334 -17.3049 0.472129 0.441674 -0.762901
-22.8624 15.7594 -17.011 0.628364 0.644823 -0.435158
-23.1909 16.0048 -17.0108 0.245281 0.595464 -0.765023
-23.606 16.1987 -16.9322 0.0257005 0.512354 -0.85839
-23.294 15.6733 -17.2189 -0.0447054 0.419103 -0.906837
-23.8718 16.0487 -16.9727 -0.205623 0.358203 -0.910719
-24.1343 16.588 -16.6876 -0.157454 0.428802 -0.889571
-24.4629 17.1854 -16.3135 -0.126348 0.467435 -0.874952
-25.9298 18.7615 -15.4167 -0.0754666 0.437243 -0.896171
-25.4146 18.4562 -15.5759 0.0730619 0.503914 -0.860658
-25.8828 19.3033 -15.0679 0.228432 0.676656 -0.699968
-25.8061 19.3834 -14.9319 0.420055 0.856611 -0.299621
-26.8196 18.9506 -14.9723 -0.676139 0.287284 -0.678457
-26.7344 19.2801 -14.8497 -0.669375 0.513522 -0.536872
-26.9457 19.0222 -14.7532 -0.832202 0.393007 -0.391133
-26.9198 18.8154 -14.1217 -0.731384 0.423626 0.534433
-16.5564 10.8177 -17.7511 0.92482 0.33351 -0.182973
-16.4895 10.9417 -17.2307 0.882753 0.391315 -0.260039
-16.526 11.5494 -16.927 0.821645 0.105943 -0.560067
-26.5718 18.49 -13.7843 -0.258669 0.104061 0.960345
-26.178 18.5128 -13.7502 0.0110091 0.0927453 0.995629
-25.3828 18.7002 -14.1254 0.679028 0.280095 0.678577
-25.1043 18.4656 -14.3903 0.726077 0.240046 0.644353
-24.9534 17.0834 -14.4095 0.568117 -0.0411855 0.821916
-23.6283 15.9942 -15.223 0.52712 0.10026 0.843856
-23.2381 15.5517 -15.3803 0.531575 0.252619 0.808462
-23.3848 15.4248 -15.2725 0.436375 0.182248 0.881114
-22.7663 14.9582 -15.4031 0.404491 0.391913 0.826312
-22.226 14.7048 -15.5446 0.466626 0.465552 0.752012
-22.0299 13.877 -15.2187 0.386615 0.450102 0.804946
-22.2704 14.0729 -15.2178 0.331793 0.384188 0.861576
-22.8169 13.4471 -14.8076 0.191408 0.405898 0.89365
-16.665 11.6577 -17.1934 0.886128 0.157161 -0.435979
-22.5231 13.2886 -14.7647 0.109493 0.536661 0.836664
-22.6451 12.7207 -14.1466 0.0613051 0.87301 0.483833
-23.099 12.8068 -14.2459 0.0776121 0.933064 0.351237
-23.6242 12.826 -14.1964 0.0224243 0.911693 0.410259
-23.3774 12.6995 -13.8103 0.057244 0.996683 -0.0578494
-23.6771 12.7171 -13.5615 -0.0647431 0.986871 -0.147968
-24.1126 12.8428 -13.3246 0.0320361 0.645354 -0.763211
-24.8454 13.303 -12.916 -0.165621 0.430085 -0.887466
-24.7567 12.7056 -13.233 -0.341503 0.409683 -0.845893
-24.8073 13.7873 -12.7244 -0.250383 0.332421 -0.909288
-25.0841 14.0608 -12.5689 -0.386225 0.276089 -0.880116
-24.8489 14.3262 -12.534 -0.0714414 0.326352 -0.942545
-25.39 15.0854 -12.2428 -0.396781 0.174216 -0.901229
-25.4586 13.9783 -12.3832 -0.617826 0.122127 -0.776773
-25.4437 14.553 -12.3099 -0.581277 0.128576 -0.803484
-25.5655 13.6251 -12.3337 -0.732693 0.081983 -0.675603
-25.3741 13.5767 -12.5295 -0.629362 0.177875 -0.756482
-25.4742 13.0148 -12.5585 -0.737671 0.140786 -0.660319
-25.3246 12.3642 -12.9451 -0.74959 0.236334 -0.618273
-25.2245 13.0099 -12.807 -0.665033 0.228608 -0.710963
-25.5139 12.0473 -12.7738 -0.86772 0.149841 -0.47393
-25.692 12.6205 -12.3191 -0.905921 0.0644682 -0.41851
-25.7382 12.4505 -12.1853 -0.956945 0.00589262 -0.290211
-25.811 12.6567 -11.8868 -0.983679 -0.0415204 -0.175077
-25.6883 11.651 -12.3605 -0.978449 0.00260137 -0.206471
-25.724 11.673 -12.0687 -0.995901 -0.0897528 0.0111965
-25.8168 13.6836 -10.6438 -0.813136 -0.250763 0.525287
-26.0098 13.8834 -10.8497 -0.865616 -0.214969 0.452214
-26.2417 15.3053 -10.7281 -0.976654 -0.140406 0.16258
-26.264 15.6744 -11.2126 -0.969592 -0.0814903 -0.230759
-26.3664 16.3951 -10.7655 -0.998715 -0.050666 -0.00108084
-26.3624 17.7731 -10.6397 -0.991006 0.123755 0.050918
-26.2585 18.0524 -10.3477 -0.881843 0.131033 0.452972
-26.1102 18.0888 -10.1694 -0.685525 0.133281 0.715746
-25.8399 18.2265 -9.99444 -0.499018 0.227648 0.836156
-25.6405 18.245 -9.92625 -0.199836 0.355745 0.912969
-25.3776 18.1092 -9.85458 0.0746597 0.326527 0.942235
-25.6337 17.7188 -9.79673 -0.283565 0.16148 0.945259
-24.6536 16.7404 -9.70269 0.209343 0.12036 0.970407
-24.9892 17.1702 -9.68278 0.236376 0.197307 0.951418
-24.289 16.612 -9.78216 0.254201 0.0867252 0.963255
-24.8323 16.0286 -9.59021 0.22295 0.0278757 0.974431
-24.584 14.7411 -9.69585 0.214965 -0.0689251 0.974186
-19.3048 5.74529 -11.1618 0.354971 0.257134 0.89882
-19.96 7.04763 -11.2514 0.459496 0.0817571 0.884409
-25.8821 6.5136 -13.7547 -0.978226 -0.207321 0.00954876
-24.0863 7.39143 -19.1364 -0.545832 0.311887 -0.777685
-23.9796 12.9846 -10.222 0.2256 -0.195968 0.954307
-21.7057 11.7667 -10.7056 0.217673 -0.246256 0.944445
-20.9575 11.4936 -11.1074 0.502102 -0.22457 0.835142
-20.9692 10.8649 -11.2349 0.521948 -0.162509 0.837353
-22.1051 11.6692 -10.6795 0.0215214 -0.238222 0.970972
-21.917 11.4378 -10.7561 0.130892 -0.231503 0.963988
-18.3054 6.70694 -11.9412 0.332063 0.27536 0.90217
-24.5466 7.4165 -18.7387 -0.673594 0.228919 -0.702757
-17.0205 13.2906 -17.8896 0.993345 -0.0108164 -0.114669
-17.0445 12.807 -17.9992 0.935335 0.00057589 -0.353763
-17.0709 13.6354 -18.1252 0.915285 -0.0421493 -0.400596
-17.2259 14.7618 -18.3631 0.685078 -0.00572873 -0.728447
-18.6984 14.3304 -18.7277 -0.268311 0.17153 -0.947938
-19.0496 13.4497 -18.7838 -0.336738 0.203316 -0.919386
-18.5051 14.1152 -18.806 -0.126925 0.146865 -0.980979
-18.2102 14.1403 -18.814 0.0442691 0.0874637 -0.995184
-20.4938 13.0354 -18.1474 -0.462752 0.42352 -0.778776
-20.1447 13.2794 -18.2649 -0.551042 0.334454 -0.764521
-20.6165 13.581 -17.6613 -0.520257 0.520221 -0.677276
-20.9144 13.8331 -17.233 -0.274422 0.798495 -0.535816
-21.4027 13.6377 -17.4012 0.265501 0.591263 -0.761523
-21.7498 13.5183 -17.5482 0.314238 0.346093 -0.88401
-21.9771 13.3802 -17.587 0.126793 0.144926 -0.981285
-22.1179 13.6628 -17.581 -0.00720004 0.0324636 -0.999447
-21.6507 13.9799 -17.3245 0.448844 0.342135 -0.82552
-22.2345 14.4377 -17.4433 0.387953 0.369297 -0.84446
-22.8563 15.1837 -17.3962 0.252084 0.354746 -0.900338
-23.0686 15.5504 -17.2723 0.0463288 0.387735 -0.920606
-22.8886 15.6134 -17.1735 0.410683 0.522369 -0.747309
-23.527 15.5254 -17.248 -0.203136 0.324995 -0.923641
-23.4951 15.179 -17.3648 -0.120034 0.274896 -0.953952
-24.3241 10.2447 -10.9085 -0.0715504 -0.0974434 0.992666
-24.8334 16.7943 -16.4358 -0.18016 0.406626 -0.895655
-25.2872 17.356 -16.0992 -0.156268 0.378364 -0.912371
-25.0202 10.1238 -11.2138 -0.609591 -0.100926 0.786265
-21.9434 11.5683 -18.0376 -0.378465 0.204242 -0.902801
-26.2004 18.5547 -15.4468 -0.270204 0.351381 -0.896393
-25.9151 18.2748 -15.6361 -0.169461 0.369032 -0.913837
-26.635 16.9736 -15.8305 -0.507322 0.273648 -0.817154
-26.3384 17.1388 -15.9338 -0.396682 0.313698 -0.862692
-26.5239 16.4263 -16.0692 -0.489179 0.228331 -0.841765
-27.1612 17.5449 -15.0562 -0.917976 0.133092 -0.373641
-27.0937 18.1368 -14.9436 -0.828805 0.211962 -0.517836
-27.0302 17.688 -15.2215 -0.783504 0.224176 -0.57954
-27.2009 17.9792 -14.7395 -0.965924 0.129489 -0.224107
-27.2473 17.6033 -14.7379 -0.991181 0.0821983 -0.103942
-27.2595 17.2661 -14.8062 -0.992655 0.0172972 -0.119741
-27.1861 16.9482 -15.1409 -0.959503 0.0239875 -0.280675
-27.083 16.987 -15.3877 -0.858237 0.12709 -0.49727
-27.123 16.6373 -15.3269 -0.955061 -0.0529435 -0.291642
-27.2358 17.5116 -14.4959 -0.977137 -0.0107094 0.212342
-27.2128 18.0007 -14.4353 -0.992121 0.0492445 0.115201
-25.8193 11.2164 -15.4989 -0.996831 -0.0583732 -0.0540337
-25.5866 11.3176 -16.3717 -0.898878 -0.0480892 -0.435553
-25.4383 11.3117 -16.6193 -0.838206 -0.0416427 -0.543761
-25.5175 10.7105 -16.4672 -0.872777 0.0180907 -0.487784
-26.2025 15.2482 -10.6102 -0.874093 -0.172142 0.454234
-26.3014 16.2806 -10.4827 -0.8777 -0.128124 0.461765
-26.2226 15.5758 -10.5572 -0.861995 -0.152795 0.483342
-26.3402 16.1683 -10.6534 -0.987211 -0.104593 0.12031
-26.7014 17.9899 -13.8073 -0.284857 -0.0442874 0.957546
-26.377 18.2015 -13.7398 -0.068868 -0.00542237 0.997611
-24.6274 12.1157 -17.2434 -0.366425 0.0349879 -0.92979
-24.9839 12.1671 -17.0743 -0.481535 -0.0189063 -0.876223
-24.6988 12.5214 -17.2246 -0.352076 -0.0659628 -0.933644
-26.3858 17.2601 -10.5468 -0.987493 -0.00318673 0.157631
-26.3463 17.4952 -10.4093 -0.918624 0.0385461 0.393248
-26.2149 17.4448 -10.2096 -0.77167 0.0142425 0.635864
-25.932 17.5981 -9.94266 -0.579455 0.0982324 0.809062
-26.3704 17.8376 -13.7596 -0.00877419 -0.0764774 0.997033
-25.2488 17.6276 -9.73809 0.0729553 0.224827 0.971664
-25.3489 17.0887 -9.65145 -0.239169 0.0980037 0.966019
-25.2656 12.5232 -16.9345 -0.587795 -0.141909 -0.796467
-25.4779 12.9927 -16.8873 -0.63601 -0.195562 -0.74649
-25.3387 13.1633 -17.0149 -0.489691 -0.134767 -0.861418
-25.774 13.5048 -16.7622 -0.668888 -0.195011 -0.717328
-25.5777 13.6953 -16.9552 -0.539655 -0.0891605 -0.837152
-26.5756 17.2096 -13.8958 -0.314229 -0.237596 0.919134
-26.5133 17.5008 -13.8199 -0.173882 -0.161424 0.971446
-25.189 15.801 -9.57367 -0.00539253 -0.0243293 0.999689
-24.9287 15.3823 -9.59773 0.103892 -0.0490279 0.993379
-26.1312 13.9653 -16.5247 -0.78605 -0.225378 -0.575613
-25.7432 13.1576 -16.6698 -0.751143 -0.247701 -0.611906
-26.0959 13.692 -16.4299 -0.826879 -0.289652 -0.482051
-25.2946 12.1498 -10.7122 -0.704334 -0.2999 0.643408
-24.9774 14.5708 -9.6961 -0.068313 -0.193429 0.978733
-26.4646 14.446 -16.1897 -0.850823 -0.211592 -0.480967
-26.3487 14.0435 -16.1686 -0.888341 -0.309633 -0.339084
-21.2582 10.6537 -18.6759 -0.380072 0.447367 -0.809573
-18.4099 11.8059 -19.109 0.123676 0.200309 -0.971895
-24.3995 13.885 -9.89062 0.269151 -0.244721 0.931488
-24.4181 12.7986 -10.1715 0.150443 -0.251879 0.955994
-25.9947 18.4008 -13.7655 0.20162 0.0114062 0.979397
-26.0662 18.9607 -13.8281 0.253536 0.252991 0.933657
-23.9344 12.3187 -10.3753 0.200383 -0.223891 0.953792
-26.3654 13.9439 -15.9396 -0.925958 -0.35462 -0.129794
-23.196 12.4712 -10.4835 0.0895024 -0.224913 0.970259
-23.6491 11.0462 -10.7626 0.139703 -0.240695 0.960494
-23.5285 10.5487 -10.881 0.0563077 -0.120096 0.991164
-23.0219 11.2237 -10.7855 0.0659823 -0.229021 0.971183
-22.5762 11.2431 -10.7885 0.0199615 -0.178651 0.98371
-26.5355 14.3672 -15.878 -0.934364 -0.342359 -0.0987668
-26.3108 13.7709 -15.6639 -0.934673 -0.355283 -0.0126551
-26.5603 14.4292 -15.6091 -0.940633 -0.339392 -0.00477332
-17.2276 13.5573 -18.3556 0.783273 -0.0255055 -0.621155
-17.3097 13.9626 -18.4453 0.722883 -0.000405919 -0.69097
-17.4902 13.9452 -18.595 0.551155 0.0154106 -0.83426
-17.704 13.5023 -18.7328 0.435896 0.0367952 -0.899244
-18.5809 13.2913 -18.9065 -0.0377496 0.112661 -0.992916
-26.0877 13.1943 -15.3006 -0.901687 -0.255639 0.348725
-26.1997 13.6574 -15.1796 -0.808444 -0.351367 0.472185
-18.7299 12.4159 -19.0167 -0.0685526 0.14358 -0.987262
-18.4269 12.8577 -18.9521 0.0910832 0.119156 -0.988689
-18.0403 12.1276 -18.9869 0.195121 0.137572 -0.971083
-19.3682 12.7174 -18.843 -0.350718 0.213714 -0.911769
-19.3258 13.4591 -18.6716 -0.385877 0.234053 -0.892366
-19.7322 12.5669 -18.7301 -0.38585 0.243943 -0.889726
-19.6522 13.2104 -18.5837 -0.444528 0.256704 -0.858195
-24.9353 15.7372 -14.5523 0.491178 -0.0935326 0.866023
-21.2039 13.4441 -17.5622 -0.220629 0.675018 -0.704041
-20.8294 13.3403 -17.767 -0.363444 0.535124 -0.762595
-26.0028 13.311 -16.339 -0.865289 -0.296854 -0.403922
-25.7971 12.5962 -16.3127 -0.869735 -0.228107 -0.43764
-25.6086 9.63387 -16.558 -0.880707 0.168721 -0.442592
-23.9834 15.5591 -15.0107 0.38754 0.0105402 0.921793
-23.7381 15.2193 -15.082 0.334326 0.125535 0.93406
-23.7105 15.5868 -15.1396 0.44446 0.0766519 0.892513
-24.1027 16.0541 -14.9535 0.463445 -0.00511224 0.886111
-21.2322 13.1297 -17.7691 -0.300708 0.43284 -0.849838
-26.3418 14.1892 -15.0398 -0.677097 -0.341197 0.652016
-26.0704 13.7836 -14.9834 -0.623379 -0.276796 0.731288
-26.1048 13.5222 -15.1333 -0.776319 -0.242934 0.581646
-21.7382 12.9968 -17.6931 -0.143794 0.198093 -0.969579
-25.8671 13.3439 -14.9207 -0.660848 -0.130924 0.739012
-22.6844 13.962 -17.5745 0.0115776 0.019069 -0.999751
-22.7904 14.4497 -17.5437 0.0184342 0.090698 -0.995708
-22.3294 14.272 -17.518 0.194103 0.224479 -0.954952
-22.7623 14.7551 -17.4989 0.083064 0.193209 -0.977635
-25.5458 14.3473 -14.6194 -0.202421 -0.169819 0.964462
-25.6715 14.6777 -14.5757 -0.144334 -0.233396 0.96161
-25.7957 14.2022 -14.7208 -0.313444 -0.209857 0.926128
-19.7444 10.5675 -19.3544 -0.299062 0.472257 -0.829177
-23.0203 14.9891 -17.4593 -0.0524602 0.213239 -0.975591
-23.2224 14.9335 -15.2123 0.327357 0.237255 0.91463
-25.6112 10.2201 -12.0269 -0.940782 -0.0891266 0.327087
-23.5153 14.7875 -17.4509 -0.135237 0.165981 -0.976812
-23.9942 14.9013 -17.3368 -0.254581 0.22586 -0.940306
-24.8068 14.1215 -17.2248 -0.255888 0.0990194 -0.961622
-24.8977 14.4595 -17.154 -0.277437 0.163119 -0.946795
-24.4097 14.9538 -14.838 0.306462 0.0913886 0.947486
-24.3713 15.27 -14.8574 0.351116 -0.00201084 0.93633
-23.668 14.2191 -17.4976 -0.206318 0.0352344 -0.97785
-23.9007 14.587 -17.4122 -0.229929 0.11789 -0.966041
-25.2014 14.2643 -17.0961 -0.313012 0.118043 -0.942385
-24.0343 14.293 -14.8198 0.229381 0.244418 0.942149
-23.5832 14.7774 -15.0573 0.275654 0.206168 0.938887
-24.08 14.6863 -14.8966 0.260463 0.173139 0.949833
-25.5744 14.9114 -16.8544 -0.29746 0.213999 -0.930442
-25.5278 14.4285 -16.9496 -0.376814 0.106721 -0.920121
-25.7867 14.94 -16.767 -0.405126 0.145798 -0.902561
-25.7189 14.2904 -16.8794 -0.459734 0.0499819 -0.886649
-26.0324 14.8403 -16.6625 -0.497139 0.103639 -0.861459
-23.3625 14.4199 -15.0227 0.240584 0.295472 0.924562
-25.0343 13.2597 -14.5102 -0.144469 0.163215 0.975956
-25.3349 13.7283 -14.6319 -0.184373 0.0515798 0.981502
-26.0028 15.5259 -16.5515 -0.360361 0.231946 -0.903516
-25.64 15.49 -16.6784 -0.266298 0.274045 -0.924113
-26.2585 15.7691 -16.3653 -0.469511 0.194924 -0.861141
-26.3171 16.4951 -16.1532 -0.373344 0.258918 -0.890829
-22.9086 14.7516 -15.2627 0.290654 0.323359 0.900533
-26.0133 16.6115 -16.2204 -0.277976 0.288966 -0.916094
-26.4372 14.09 -15.2475 -0.913752 -0.375339 0.155495
-26.7298 14.9168 -15.1609 -0.940981 -0.328137 0.0829509
-26.5522 14.4027 -15.1891 -0.896099 -0.360094 0.259497
-25.9818 17.595 -15.8727 -0.22016 0.337724 -0.915135
-26.2064 17.8165 -15.7245 -0.299683 0.337114 -0.892493
-26.1807 16.7869 -16.1114 -0.276764 0.319307 -0.906336
-26.7426 15.9242 -15.9874 -0.728995 0.0587573 -0.681993
-26.8746 16.2072 -15.8144 -0.793357 0.0407062 -0.607395
-26.7153 16.38 -15.9438 -0.632193 0.170458 -0.755828
-26.7503 15.6135 -15.9768 -0.81876 -0.0423415 -0.572572
-25.8125 11.3666 -15.2718 -0.984685 -0.02652 0.172316
-26.6169 14.9458 -16.0923 -0.853883 -0.115255 -0.507544
-26.7479 15.2617 -15.9228 -0.905849 -0.138869 -0.400191
-26.5447 15.4694 -16.2228 -0.679169 0.0456135 -0.732564
-25.382 14.1122 -14.6145 -0.175115 -0.0860753 0.980778
-23.619 13.027 -14.4315 0.131857 0.62783 0.767101
-26.6032 15.9417 -16.1202 -0.577902 0.141914 -0.803673
-26.9117 16.6542 -15.6985 -0.739896 0.152431 -0.655224
-26.7775 16.8639 -15.7649 -0.61461 0.241209 -0.751048
-23.9194 12.7177 -14.0123 -0.105654 0.975813 0.19138
-27.235 16.7402 -14.8412 -0.987376 -0.103485 -0.119918
-27.2371 17.0179 -14.6334 -0.971901 -0.0854757 0.219322
-27.2095 16.739 -14.6689 -0.924307 -0.198617 0.325896
-26.7418 14.9558 -15.4443 -0.951623 -0.307219 -0.00551521
-26.6644 14.7245 -15.7866 -0.953673 -0.2923 -0.0711867
-26.8486 16.7654 -14.1759 -0.557216 -0.339751 0.75768
-26.6349 16.4665 -14.1835 -0.403859 -0.36974 0.836773
-26.9473 17.6122 -13.973 -0.625279 -0.102906 0.773587
-26.7941 17.6131 -13.8867 -0.402822 -0.156392 0.901818
-26.3704 16.2056 -14.1941 -0.278933 -0.379721 0.882048
-26.1467 15.9709 -14.2424 -0.162975 -0.346191 0.9239
-25.7221 10.5291 -15.9729 -0.957438 0.0362908 -0.286348
-25.8926 13.8899 -14.8332 -0.46691 -0.181566 0.865465
-25.2887 10.6062 -16.8335 -0.767229 0.0763324 -0.636814
-25.7567 15.9468 -14.2297 0.06541 -0.275765 0.958997
-25.8583 15.7041 -14.2997 -0.0463234 -0.276434 0.959916
-25.4329 15.4317 -14.4011 0.209236 -0.186873 0.959843
-25.3704 15.7561 -14.3405 0.263804 -0.206572 0.942197
-25.1376 15.7758 -14.4315 0.433207 -0.14375 0.889757
-25.0923 15.3628 -14.5147 0.396566 -0.118815 0.910285
-24.7514 15.001 -14.7254 0.414575 -0.0246438 0.909682
-25.0149 14.9472 -14.5815 0.354204 -0.0462506 0.934024
-24.7984 14.5759 -14.6632 0.334268 0.0830285 0.938814
-24.458 14.5368 -14.773 0.272331 0.151018 0.950279
-24.5164 14.0723 -14.6606 0.178876 0.230306 0.956537
-22.6869 13.8897 -15.017 0.245948 0.331175 0.910952
-23.8241 13.4054 -14.5755 0.182493 0.382944 0.905566
-24.2996 13.0259 -14.3774 0.0407509 0.450498 0.891847
-24.2545 12.7958 -14.2348 -0.0430494 0.66546 0.745191
-19.9061 11.7251 -18.8556 -0.311833 0.191728 -0.930591
-25.9487 13.0493 -15.0846 -0.831459 -0.156808 0.532997
-24.508 12.3376 -13.7281 -0.593275 0.632776 -0.497615
-24.293 12.5686 -13.7035 -0.687818 0.725033 -0.0351264
-24.9294 11.8269 -13.8685 -0.751491 0.607818 -0.25655
-24.8656 12.031 -13.6245 -0.662376 0.552056 -0.506451
-24.5051 12.6139 -13.399 -0.457046 0.55669 -0.69369
-25.0967 11.6168 -13.8049 -0.779194 0.520998 -0.34845
-25.256 11.6162 -13.4243 -0.750649 0.401197 -0.524945
-25.0499 12.5382 -13.137 -0.567946 0.331815 -0.753217
-25.0766 12.1406 -13.3103 -0.705998 0.33242 -0.62535
-25.3693 11.8078 -13.1258 -0.824987 0.256011 -0.50384
-25.2422 11.4504 -13.6207 -0.880664 0.387331 -0.272775
-25.4874 10.9367 -13.3884 -0.955626 0.191606 -0.223755
-25.5256 11.5345 -12.9453 -0.925828 0.118843 -0.358775
-25.6673 10.2369 -12.7179 -0.99999 0.00449754 -0.00086415
-25.6544 10.5357 -12.728 -0.98602 0.0938188 -0.137703
-25.6641 10.8865 -12.0961 -0.997252 -0.0618327 0.0407953
-25.6679 10.8941 -12.446 -0.996697 -0.00849752 -0.0807603
-25.6333 11.1271 -11.7765 -0.979754 -0.121359 0.159231
-25.4858 10.2515 -11.6839 -0.877971 -0.143984 0.456548
-25.6096 11.4324 -11.5265 -0.948854 -0.175766 0.262264
-24.2941 12.5687 -13.9574 -0.323025 0.922663 0.210588
-26.1517 14.6189 -10.7824 -0.878414 -0.204115 0.432118
-25.8669 14.9194 -10.1703 -0.824126 -0.203448 0.528608
-26.3581 16.6526 -10.5133 -0.981073 -0.0515636 0.186645
-26.2865 16.799 -10.3526 -0.831073 -0.0691848 0.551843
-25.9765 16.5486 -9.97895 -0.763643 -0.0563303 0.643177
-25.9711 15.6737 -10.0895 -0.816206 -0.126853 0.563663
-25.7716 15.5685 -9.88075 -0.719091 -0.167675 0.674383
-25.5036 15.1496 -9.75995 -0.562308 -0.166902 0.809909
-25.5975 16.5674 -9.67934 -0.33263 0.0442284 0.94202
-25.7687 16.8967 -9.80076 -0.637105 0.00202541 0.770774
-26.029 17.3624 -10.0089 -0.662392 0.0125892 0.749051
-25.2055 15.2681 -9.62706 -0.080406 -0.10353 0.991371
-25.1769 14.1981 -9.82043 -0.310738 -0.19888 0.929456
-24.7112 13.7197 -9.88329 0.0803592 -0.283402 0.955628
-25.0892 13.5001 -10.0125 -0.173811 -0.292871 0.940221
-24.6744 12.852 -10.1488 0.0490322 -0.25786 0.964937
-23.927 11.6823 -10.5407 0.156791 -0.258509 0.9532
-17.4099 12.5237 -18.5706 0.72828 0.0455296 -0.683765
-17.9544 12.6309 -18.8726 0.278398 0.0594744 -0.958623
-17.9958 13.687 -18.8224 0.230188 0.0648349 -0.970984
-19.0472 12.4506 -18.983 -0.200852 0.141369 -0.969367
-19.0274 12.9099 -18.9024 -0.249544 0.174775 -0.952461
-22.5507 12.8865 -17.5598 0.024303 0.00925248 -0.999662
-23.038 12.3799 -17.6025 -0.0934709 0.0647855 -0.993512
-23.0206 12.6428 -17.5867 0.0554144 0.030724 -0.997991
-23.149 13.0459 -17.5881 -0.016565 -0.00105184 -0.999862
-23.3291 14.2547 -17.5442 -0.0797161 0.0854991 -0.993144
-24.6234 13.5496 -17.2879 -0.226001 -0.00499047 -0.974114
-25.0445 13.6717 -17.1898 -0.274887 0.00619472 -0.961457
-24.7119 13.9008 -17.261 -0.226163 0.0237764 -0.973799
-25.2835 13.7298 -17.1074 -0.40371 -0.0031149 -0.914882
-25.0766 13.1581 -17.149 -0.37087 -0.0880272 -0.924503
-26.0195 14.3335 -16.694 -0.569902 -0.0174625 -0.821527
-26.1642 14.5783 -16.5812 -0.618306 0.00440197 -0.785925
-26.3051 14.9307 -16.4659 -0.65174 0.0269312 -0.757964
-26.2221 14.3897 -16.5158 -0.742787 -0.113783 -0.659789
-26.2807 15.4164 -16.4249 -0.543701 0.125626 -0.829824
-26.4533 14.716 -16.2966 -0.781357 -0.0945391 -0.616882
-26.6137 14.6547 -15.9574 -0.925007 -0.239873 -0.294657
-26.9477 15.7692 -15.5707 -0.971306 -0.201975 -0.125579
-26.8876 15.8052 -15.7647 -0.909901 -0.0870627 -0.405586
-26.8325 15.3502 -15.7283 -0.94944 -0.195967 -0.245276
-27.0516 16.2278 -15.4271 -0.967251 -0.159699 -0.197284
-27.1856 16.4726 -14.8358 -0.972255 -0.22834 -0.0508022
-27.0041 15.8515 -15.1107 -0.968448 -0.235019 -0.0829121
-27.0306 15.9324 -14.9189 -0.931348 -0.306248 0.196982
-27.0034 16.6669 -14.3626 -0.700762 -0.325858 0.634625
-27.1022 16.5589 -14.5537 -0.810353 -0.295418 0.506019
-26.9586 15.9226 -14.7515 -0.76716 -0.343058 0.542012
-26.7418 15.5867 -14.6653 -0.596245 -0.365601 0.714722
-26.7926 15.2971 -14.9049 -0.78181 -0.363128 0.506864
-26.537 15.0457 -14.7941 -0.567041 -0.370175 0.735823
-26.4802 14.6386 -14.9419 -0.618337 -0.337135 0.709929
-26.664 14.8372 -15.051 -0.768061 -0.360546 0.529234
-26.7734 16.0821 -14.4563 -0.594923 -0.36174 0.717782
-26.5062 15.7654 -14.4362 -0.3787 -0.371605 0.847641
-26.1136 15.275 -14.4914 -0.294362 -0.334791 0.895135
-25.8867 14.8338 -14.5767 -0.252807 -0.285958 0.924293
-25.9587 15.4756 -14.3807 -0.17113 -0.309748 0.935292
-25.2039 14.9487 -14.5322 0.151174 -0.14759 0.977427
-25.0516 14.53 -14.5871 0.184308 -0.0193718 0.982678
-24.8151 14.2237 -14.616 0.213051 0.126212 0.968855
-23.5187 13.5893 -14.7065 0.21285 0.324552 0.921608
-24.6461 12.2929 -14.0854 -0.601789 0.508946 0.615487
-24.7877 12.345 -14.2152 -0.5782 0.324199 0.748719
-24.9922 12.3277 -14.3266 -0.538907 0.112194 0.83486
-25.415 10.9762 -13.7511 -0.936471 0.344632 -0.0652011
-25.339 13.2758 -10.243 -0.611726 -0.302688 0.730871
-25.4587 14.1333 -9.99777 -0.678226 -0.266588 0.684792
-25.5236 15.7886 -9.66661 -0.472 -0.128266 0.872218
-25.6589 14.5017 -10.0642 -0.783951 -0.238894 0.573018
-25.2698 16.3561 -9.57133 -0.211529 -0.0145299 0.977264
-24.4141 11.8495 -10.4429 -0.104409 -0.326901 0.939273
-21.9072 12.1702 -17.8864 -0.382332 0.313153 -0.869343
-21.572 12.7421 -17.8333 -0.381981 0.337985 -0.860149
-22.0301 12.5043 -17.6927 -0.357255 0.301415 -0.884035
-23.4837 12.1023 -17.5686 -0.216865 0.108013 -0.970208
-23.1536 12.1298 -17.6223 -0.155569 0.167339 -0.973548
-23.4806 11.753 -17.6174 -0.226413 0.193146 -0.954689
-22.8807 11.6633 -17.7574 -0.169958 0.225017 -0.959417
-22.6563 12.3405 -17.6181 -0.0159868 0.126691 -0.991813
-23.3606 13.2168 -17.5663 -0.149076 0.0107845 -0.988767
-24.6401 12.871 -17.2715 -0.271137 -0.038535 -0.961769
-25.0452 12.7117 -17.099 -0.453025 -0.121223 -0.883218
-25.9457 13.9699 -16.7179 -0.652339 -0.129903 -0.746712
-26.8441 15.2952 -15.563 -0.965624 -0.254058 -0.0549922
-26.8976 15.4515 -15.0933 -0.963488 -0.267123 -0.0183468
-26.8777 15.4157 -14.9856 -0.913627 -0.327853 0.240413
-27.1337 16.3549 -14.7491 -0.88223 -0.307511 0.356522
-26.5006 15.1642 -16.2705 -0.73657 -0.00620881 -0.676333
-26.138 14.3467 -14.8156 -0.491549 -0.288063 0.821827
-26.1992 14.8025 -14.6979 -0.406041 -0.310493 0.859491
-26.386 15.3598 -14.5634 -0.428444 -0.362249 0.827775
-24.5565 13.578 -14.5445 0.0733645 0.25035 0.965372
-24.7983 12.9487 -14.4052 -0.305687 0.189299 0.933124
-25.401 12.8095 -14.6198 -0.456489 0.0682286 0.887109
-25.5053 13.3262 -14.6826 -0.404721 0.0367575 0.913701
-25.8101 13.0254 -16.5087 -0.814474 -0.267261 -0.514979
-25.6096 11.1099 -14.7217 -0.868195 0.127353 0.479602
-25.3116 11.2403 -14.0689 -0.891223 0.379532 0.248348
-25.3711 11.5658 -14.4845 -0.821816 0.263389 0.505217
-25.1003 11.6753 -14.1672 -0.830915 0.454423 0.321062
-25.7946 12.1391 -16.0588 -0.931816 -0.161025 -0.325255
-25.5195 12.4607 -16.6809 -0.754725 -0.200402 -0.624683
-25.7014 12.0075 -16.2429 -0.892928 -0.108239 -0.436995
-25.7187 11.4481 -16.0789 -0.94275 -0.0747489 -0.325014
-24.6883 11.1986 -17.2626 -0.456223 0.0911883 -0.885181
-24.9907 12.152 -10.4515 -0.295206 -0.329949 0.896653
-25.7752 11.1329 -15.81 -0.975685 -0.0642173 -0.20956
-25.5044 10.8693 -14.3067 -0.938492 0.323389 0.121052
-25.5313 10.5995 -13.9709 -0.973386 0.217291 0.0728275
-25.2787 10.9928 -16.8296 -0.799202 -0.00273213 -0.601056
-25.1375 11.0359 -16.9769 -0.665183 0.0101154 -0.746612
-25.2903 12.092 -16.8486 -0.68861 -0.0868901 -0.719908
-25.7743 11.7449 -15.0998 -0.927172 -0.036355 0.372868
-25.7348 11.0703 -14.9858 -0.942481 0.0382961 0.332059
-24.8613 11.0758 -10.848 -0.51093 -0.274063 0.814764
-26.2673 13.6766 -15.3396 -0.918779 -0.375168 0.122858
-25.6586 11.9898 -12.4498 -0.94447 0.0464652 -0.325296
-25.0636 14.24 -14.5897 -0.00325127 0.00425967 0.999986
-17.673 12.1978 -18.8372 0.445831 0.122797 -0.886654
-24.9741 11.3236 -17.0889 -0.556427 0.0235527 -0.830563
-22.1886 11.9297 -17.8547 -0.307574 0.326869 -0.893619
-25.8855 12.4325 -15.1565 -0.909136 -0.125711 0.397074
-25.8561 11.9004 -15.298 -0.970143 -0.113501 0.214337
-16.7325 12.5139 -16.9434 0.866255 0.231747 -0.442602
