-7.63323 -2.20385 12.0738 -0.45309 -0.480236 -0.751054
-7.9215 -2.5835 12.4838 -0.480901 -0.485673 -0.72997
-7.95179 -2.82067 12.6794 -0.402801 -0.581373 -0.706934
-8.19756 -2.67059 12.7553 -0.609065 -0.429326 -0.666872
-8.13586 -3.16073 13.0907 -0.413304 -0.627204 -0.660148
-8.23199 -2.93327 12.9675 -0.578333 -0.489352 -0.652736
-8.27213 -3.16956 13.2023 -0.543868 -0.574633 -0.611559
-8.4446 -2.74093 13.0687 -0.738495 -0.333988 -0.585727
-8.23813 -2.34466 12.6163 -0.715502 -0.276809 -0.641431
-8.65446 -2.88716 13.4588 -0.851718 -0.280011 -0.442912
-8.67888 -3.15789 13.7103 -0.846222 -0.341831 -0.408729
-8.78951 -3.14444 13.997 -0.948724 -0.161037 -0.27201
-7.37186 -4.30061 14.6772 0.0749421 -0.734994 -0.673919
-7.6993 -4.44394 14.8242 -0.0262489 -0.784406 -0.619692
-7.67332 -4.23553 14.575 0.0484257 -0.76674 -0.640129
-8.64417 -3.44593 13.9061 -0.789905 -0.445049 -0.421879
-8.77707 -3.40261 14.1823 -0.916064 -0.299236 -0.26699
-8.71596 -2.6515 13.5488 -0.952888 -0.0759973 -0.293649
-8.72509 -3.92818 14.9406 -0.931724 -0.357632 -0.063162
-8.75325 -3.82336 15.1657 -0.945077 -0.290472 0.149854
-8.53198 -3.97471 15.6928 -0.843244 -0.247082 0.477378
-8.62575 -4.03078 15.4402 -0.896603 -0.341556 0.281856
-8.43064 -4.34253 15.5711 -0.808656 -0.498726 0.312006
-8.58277 -4.18559 15.285 -0.870547 -0.479818 0.109188
-8.21935 -4.10178 16.0528 -0.65983 -0.293459 0.691742
-7.90228 -3.88447 16.3544 -0.512193 -0.131651 0.848721
-7.9621 -4.11085 16.2701 -0.576472 -0.281537 0.767083
-7.85985 -4.33573 16.2342 -0.49804 -0.431732 0.75204
-7.71813 -4.18559 16.3869 -0.420607 -0.272597 0.865321
-7.39622 -4.22737 16.5052 -0.285104 -0.281753 0.91615
-7.52448 -4.443 16.3629 -0.367858 -0.503341 0.781875
-7.20165 -4.49656 16.4443 -0.250262 -0.496966 0.830899
-7.30612 -3.96948 16.5841 -0.241163 -0.140619 0.960243
-7.0009 -4.19292 16.6018 -0.166687 -0.233342 0.958002
-7.6481 -3.8546 16.4875 -0.383825 -0.0760259 0.920271
-7.95431 -3.61219 16.3438 -0.481272 -0.0275989 0.876137
-7.84413 -3.16051 16.4074 -0.442057 0.00724676 0.896958
-7.94738 -2.52898 16.2932 -0.545033 0.123981 0.829197
-7.73688 -2.56051 16.4101 -0.418477 0.113835 0.901065
-7.68222 -2.13177 16.3656 -0.372436 0.17382 0.911635
-7.81165 -1.85107 16.2421 -0.462844 0.204076 0.862629
-7.87373 -1.52395 16.1223 -0.521393 0.238046 0.819441
-7.62666 -1.45939 16.2391 -0.411853 0.227394 0.882422
-7.7416 -2.92089 16.4414 -0.39736 0.0657727 0.915303
-7.57614 -3.2409 16.5223 -0.343454 0.0155149 0.939041
-7.47848 -2.81534 16.5349 -0.293379 0.0863502 0.952088
-7.60106 -2.41182 16.4423 -0.307668 0.141367 0.940933
-7.30181 -2.33144 16.518 -0.240766 0.141167 0.960262
-7.26359 -1.81641 16.4441 -0.206203 0.185379 0.960789
-7.44115 -2.03656 16.4309 -0.297815 0.160931 0.940961
-7.24556 -2.77978 16.5858 -0.18463 0.0993691 0.977772
-7.01408 -2.2821 16.5653 -0.168334 0.146983 0.97471
-6.95858 -3.00373 16.6526 -0.142829 0.0752784 0.98688
-6.82816 -2.44873 16.6185 -0.129138 0.119337 0.98442
-6.41334 -3.00214 16.7216 -0.137734 0.0768627 0.987482
-6.21059 -2.55171 16.7039 -0.124553 0.119092 0.98504
-6.98086 -1.70937 16.4742 -0.145866 0.186037 0.971655
-6.79256 -1.94804 16.5441 -0.12312 0.168749 0.977939
-6.44258 -1.48895 16.5002 -0.11074 0.190325 0.975455
-5.57643 0.410538 16.2238 -0.13707 0.261332 0.955467
-5.4762 0.205485 16.2924 -0.138226 0.223878 0.964765
-5.23652 0.128596 16.3448 -0.141941 0.208412 0.967686
-4.76132 0.443947 16.3323 -0.122926 0.27509 0.953528
-4.43843 0.306544 16.41 -0.096764 0.24293 0.965206
-4.12406 0.619211 16.3505 -0.0737734 0.262977 0.961977
-4.99699 0.646029 16.2379 -0.132086 0.291427 0.94743
-5.13363 1.20443 16.0456 -0.130124 0.259007 0.95707
-2.81636 1.25453 16.27 -0.0449856 0.258944 0.964844
-3.71095 1.66592 16.1027 -0.0783984 0.266015 0.960776
-3.45209 1.23778 16.2331 -0.065957 0.246265 0.966956
-3.2269 1.62477 16.1415 -0.0471475 0.285529 0.95721
-2.48665 1.48251 16.2095 0.00456619 0.293444 0.955965
-2.39769 0.879513 16.3773 -0.00984036 0.261888 0.965048
-2.26347 0.326655 16.5288 -0.00777932 0.260926 0.965328
-2.15054 0.733117 16.415 0.0236618 0.267927 0.963148
-1.94163 0.327759 16.5239 0.075152 0.269847 0.959966
-1.9567 1.19853 16.2653 0.11398 0.297511 0.94789
-1.96946 0.847244 16.3735 0.0925251 0.282332 0.954844
-1.65867 0.570728 16.414 0.179322 0.294856 0.938565
-1.79942 1.27336 16.2173 0.195701 0.34337 0.918585
-1.7928 1.69952 16.0275 0.261829 0.416234 0.870744
-2.17819 1.56228 16.1697 0.0938566 0.344837 0.933958
-2.2527 1.1744 16.2974 0.0416675 0.282501 0.958362
-2.81501 1.61336 16.1633 -0.0213878 0.302644 0.952864
-2.51976 1.85755 16.0797 0.0329161 0.347089 0.937254
-2.02445 1.70194 16.0858 0.202131 0.411359 0.888778
-1.44356 0.580601 16.357 0.283556 0.319381 0.904208
-1.28027 0.109085 16.4746 0.302602 0.283106 0.9101
-1.13828 -0.491487 16.5864 0.339658 0.232094 0.911463
-0.883662 -0.676553 16.5144 0.483143 0.215381 0.848637
-0.697429 -1.59715 16.6087 0.533203 0.150765 0.832445
-0.759805 -1.21191 16.5699 0.504089 0.192878 0.841839
-0.997057 -1.05208 16.6636 0.385534 0.186945 0.903557
-0.947049 -1.58443 16.7418 0.381097 0.16388 0.909895
-0.639594 -2.04937 16.6369 0.588147 0.0921423 0.803488
-0.64361 -2.93077 16.7003 0.608836 0.0112882 0.793216
-0.555162 -3.59342 16.5879 0.768881 -0.0975258 0.63191
-0.675091 -3.84421 16.6888 0.668162 -0.130994 0.732394
-0.915836 -4.33442 16.7516 0.573116 -0.206383 0.79306
-0.664727 -4.01465 16.6058 0.729284 -0.239768 0.640825
-0.832501 -3.91527 16.7864 0.560177 -0.155 0.813742
-1.05261 -4.59747 16.7622 0.517137 -0.383803 0.765026
-0.809519 -4.40246 16.618 0.748466 -0.337471 0.570887
-0.672136 -4.70352 16.1837 0.799578 -0.387909 0.458477
-0.614242 -4.85476 15.9003 0.870382 -0.409129 0.273951
-0.684171 -4.99106 15.7946 0.73313 -0.675335 0.0802697
-0.459893 -4.64642 15.368 0.812242 -0.571179 -0.118397
-0.65437 -4.75641 15.0664 0.512165 -0.78789 -0.341931
-0.995896 -4.82312 14.8777 0.175518 -0.885335 -0.430552
-1.121 -4.64944 14.5586 0.0372159 -0.847415 -0.529625
-0.87546 -4.53836 14.4525 0.298516 -0.79597 -0.526611
-1.10303 -4.03419 13.7897 0.134643 -0.689386 -0.711771
-0.847717 -3.94104 13.7773 0.356044 -0.622122 -0.697278
-1.27397 -3.54457 13.3143 0.0583134 -0.683677 -0.727451
-0.93759 -3.56466 13.4177 0.322052 -0.617853 -0.717315
-1.11972 -3.51144 13.3036 0.185409 -0.656777 -0.730936
-1.28911 -3.29655 13.0876 0.0436899 -0.709092 -0.703761
-1.45763 -3.49892 13.2867 -0.133755 -0.68304 -0.718029
-1.86785 -3.17781 13.1074 -0.366228 -0.743959 -0.558929
-2.17999 -2.99208 13.0783 -0.411284 -0.776614 -0.477195
-2.07112 -3.25357 13.3618 -0.476829 -0.694684 -0.538561
-2.32756 -3.22658 13.5934 -0.547666 -0.67164 -0.49896
-2.11178 -3.42187 13.5787 -0.570458 -0.594954 -0.566222
-2.68101 -3.28076 14.0038 -0.317381 -0.745675 -0.585865
-2.55142 -3.38103 14.0415 -0.528807 -0.655503 -0.539147
-2.87036 -3.27004 14.0691 -0.205413 -0.755172 -0.622512
-2.70831 -3.47668 14.2519 -0.285771 -0.693495 -0.661362
-3.03158 -3.3574 14.2078 -0.124781 -0.731935 -0.669852
-3.29447 -3.20035 14.0607 -0.0408808 -0.797207 -0.60232
-3.19788 -3.05376 13.8417 -0.0417952 -0.882973 -0.467559
-3.50936 -2.73489 12.939 0.000808854 -0.965094 -0.261904
-3.28385 -2.85947 13.433 -0.00804586 -0.949907 -0.31243
-3.5168 -2.89172 13.5132 0.00360576 -0.944526 -0.328418
-4.98815 -2.54282 12.5112 -0.12683 -0.953751 -0.272529
-4.53581 -2.55397 12.3418 -0.0479508 -0.9556 -0.29074
-4.43031 -2.61688 12.5459 -0.0472854 -0.964011 -0.261623
-3.51503 -2.61225 12.4793 -0.00805698 -0.960777 -0.277205
-4.33542 -2.44148 11.9515 -0.0288868 -0.952931 -0.301807
-5.61087 -2.22759 11.6868 -0.0855619 -0.950286 -0.299391
-5.9684 -2.2401 11.8085 -0.0525489 -0.953406 -0.297079
-5.66923 -2.11563 11.4055 -0.120228 -0.913041 -0.389745
-6.12143 -2.16592 11.6418 -0.0864622 -0.905244 -0.416002
-5.73959 -1.95278 11.0985 -0.163387 -0.869236 -0.466619
-6.71239 -2.12503 11.6453 -0.131607 -0.770034 -0.624281
-6.86307 -1.95355 11.5174 -0.269219 -0.66688 -0.694832
-6.59466 -1.71082 11.1746 -0.367269 -0.620128 -0.693221
-6.70208 -1.52461 11.09 -0.446013 -0.510191 -0.735376
-7.23432 -1.72706 11.5361 -0.461844 -0.466204 -0.754556
-7.41756 -2.11227 11.8919 -0.394616 -0.530764 -0.750045
-7.70378 -2.56309 12.3596 -0.362091 -0.551159 -0.751741
-7.52439 -2.42552 12.1825 -0.289372 -0.604163 -0.742463
-7.6291 -2.73548 12.4739 -0.197671 -0.668809 -0.716673
-7.90915 -3.1198 12.9319 -0.274434 -0.686955 -0.672888
-7.77597 -3.10044 12.8721 -0.142088 -0.716376 -0.683093
-8.12321 -3.42511 13.3711 -0.293158 -0.738537 -0.607142
-8.31285 -3.41728 13.4855 -0.499767 -0.653961 -0.56795
-8.50989 -3.31217 13.5756 -0.685079 -0.493691 -0.535664
-8.44654 -3.00931 13.2464 -0.696502 -0.432791 -0.572343
-8.63436 -2.68115 13.3322 -0.88398 -0.141779 -0.44551
-8.54288 -3.57702 13.9161 -0.597453 -0.635565 -0.488985
-8.63667 -3.86508 14.4616 -0.702911 -0.592792 -0.393083
-8.69531 -3.62082 14.2279 -0.794794 -0.488155 -0.360566
-8.73969 -3.74748 14.5499 -0.886676 -0.403327 -0.226125
-8.80971 -3.58736 14.5986 -0.966405 -0.237063 -0.0993076
-8.67376 -3.98365 14.7646 -0.841055 -0.496354 -0.215078
-8.56229 -4.16035 14.808 -0.71798 -0.651558 -0.244902
-8.64394 -4.10081 15.0199 -0.856274 -0.515636 -0.0302285
-8.30379 -4.52079 15.2678 -0.578061 -0.813633 -0.0620165
-8.06563 -4.67076 15.3806 -0.396777 -0.896608 -0.196626
-8.05719 -4.69062 15.6015 -0.458908 -0.886295 0.0623262
-8.2151 -4.57202 15.6207 -0.682447 -0.714265 0.155217
-8.43518 -4.39929 15.2283 -0.751058 -0.659959 -0.0191168
-8.1753 -4.51583 15.8308 -0.70373 -0.575219 0.416997
-8.33457 -4.17285 15.8895 -0.767323 -0.36015 0.530573
-8.10884 -4.44313 15.9755 -0.605968 -0.433575 0.666945
-7.38547 -4.70835 16.2143 -0.288945 -0.660426 0.693071
-7.62851 -4.75697 16.0422 -0.362786 -0.765702 0.531118
-6.92818 -4.86449 16.2171 -0.158233 -0.806751 0.569312
-7.20015 -4.87813 16.0793 -0.21521 -0.91919 0.329811
-7.0682 -4.68798 16.3419 -0.20857 -0.619924 0.756435
-6.95733 -4.40957 16.54 -0.18085 -0.355823 0.916888
-6.8826 -4.54858 16.4847 -0.161142 -0.506155 0.847255
-7.27514 -3.2577 16.6138 -0.228962 0.04427 0.972428
-7.36807 -3.6634 16.5926 -0.266721 -0.0305543 0.963289
-7.22799 -3.43176 16.626 -0.175811 -0.00991456 0.984374
-7.02982 -3.29426 16.6548 -0.152072 0.0341302 0.98778
-6.76279 -3.28452 16.6933 -0.125634 0.0387048 0.991321
-6.9063 -3.48695 16.6781 -0.149731 0.0181421 0.98856
-5.96675 -2.44883 16.7203 -0.128292 0.14708 0.980769
-5.93443 -2.86286 16.7791 -0.143298 0.10829 0.983737
-5.35047 -2.61544 16.8306 -0.133262 0.157393 0.978503
-4.77641 -2.63918 16.9137 -0.114669 0.164475 0.979693
-4.72478 -2.80009 16.9413 -0.11985 0.1176 0.985802
-6.06366 -1.16125 16.4719 -0.107073 0.191355 0.975663
-6.20061 -2.11163 16.6411 -0.110101 0.168218 0.979582
-5.89686 -2.06039 16.6672 -0.117348 0.181776 0.976313
-5.56992 -2.11951 16.7175 -0.123267 0.174578 0.976897
-5.30188 -1.8408 16.7 -0.132959 0.185917 0.973528
-5.62144 -1.43185 16.5788 -0.116628 0.194342 0.973976
-4.53256 -1.08761 16.6702 -0.129787 0.169158 0.977006
-4.54971 -0.604016 16.5813 -0.102598 0.177912 0.978683
-5.04739 -0.371479 16.4723 -0.141732 0.179504 0.973494
-5.53093 -0.988033 16.4949 -0.136424 0.180838 0.974005
-4.75364 -1.36321 16.6892 -0.123649 0.177778 0.976271
-5.22176 -0.685313 16.4978 -0.153187 0.15591 0.975821
-5.59825 -0.495051 16.4082 -0.139657 0.174476 0.974707
-4.52323 0.0330222 16.4661 -0.110307 0.203689 0.972802
-3.83348 0.305108 16.4452 -0.049798 0.218239 0.974624
-4.25069 -0.0713693 16.5092 -0.0496767 0.188435 0.980828
-3.72734 -0.236377 16.5545 -0.0323222 0.164488 0.985849
-3.29993 -0.208411 16.5763 -0.078957 0.152829 0.985093
-3.17709 0.159435 16.5125 -0.0701796 0.215418 0.973997
-4.0036 0.981775 16.2573 -0.104118 0.268899 0.957524
-4.41783 1.49232 16.0713 -0.123205 0.244815 0.96171
-3.57355 0.666104 16.3684 -0.0596635 0.24178 0.968495
-2.8644 0.587026 16.4342 -0.0655148 0.239492 0.968685
-2.62476 0.705688 16.4176 -0.0370988 0.253092 0.966731
-2.47081 -0.0218416 16.6166 -0.0548889 0.229446 0.971772
-2.63977 -0.185762 16.6363 -0.0848121 0.165146 0.982616
-2.17584 -0.0193268 16.6214 0.0136999 0.217498 0.975965
-2.26876 -0.495043 16.7086 -0.0413804 0.157421 0.986664
-2.08835 -0.394351 16.6878 0.030306 0.183901 0.982477
-1.97587 -0.832508 16.7653 -4.38152e-005 0.163103 0.986609
-1.72169 -0.895787 16.7722 0.056333 0.177599 0.982489
-1.81336 -0.0309343 16.6082 0.083021 0.215917 0.972876
-1.40879 -0.459104 16.6509 0.175413 0.221385 0.95928
-1.54975 0.0909098 16.5408 0.163775 0.262309 0.950985
-1.22795 -0.764853 16.6772 0.24998 0.195713 0.948265
-1.05126 -1.9985 16.8514 0.31104 0.138118 0.940307
-0.840883 -2.0036 16.759 0.471195 0.110687 0.875056
-1.32625 -1.89307 16.9085 0.153869 0.153924 0.976029
-1.25408 -2.25316 16.9369 0.212297 0.111674 0.970803
-1.00299 -2.67867 16.9107 0.395721 0.079858 0.914892
-0.742486 -2.64121 16.7648 0.538834 0.0596961 0.840294
-1.07324 -2.97078 16.9536 0.352951 0.0196441 0.935436
-0.826749 -3.04088 16.8254 0.517197 0.00823695 0.855827
-0.660694 -3.48108 16.7086 0.63224 -0.0304175 0.774175
-0.880666 -3.51222 16.8583 0.494762 -0.0354916 0.868304
-1.05442 -3.86358 16.923 0.449909 -0.122557 0.884625
-1.12121 -4.32821 16.867 0.373385 -0.196906 0.906538
-1.287 -4.58682 16.8595 0.247971 -0.308608 0.918298
-1.3602 -4.38206 16.9249 0.191597 -0.207391 0.959312
-1.35481 -4.85611 16.7583 0.267553 -0.501002 0.823051
-1.05945 -4.8872 16.5537 0.606043 -0.5963 0.52644
-0.90934 -4.72542 16.5299 0.711465 -0.461166 0.530229
-0.731123 -4.98683 15.9807 0.686112 -0.589602 0.426168
-0.957059 -5.05859 16.1646 0.512875 -0.762063 0.395245
-1.12224 -5.19306 15.8908 0.224679 -0.972982 -0.0531565
-0.833816 -5.10103 15.7784 0.374982 -0.913308 -0.158926
-1.05164 -5.16187 16.0339 0.347178 -0.90937 0.229157
-0.855933 -5.10762 15.9116 0.511839 -0.827072 0.232321
-1.11346 -5.0126 15.29 0.088786 -0.913324 -0.397438
-0.875829 -4.98945 15.361 0.339042 -0.878561 -0.336425
-1.36292 -4.54035 14.3993 -0.105712 -0.838472 -0.534593
-1.29556 -4.40895 14.2099 -0.0743498 -0.773992 -0.628815
-1.0373 -4.3928 14.199 0.110817 -0.780266 -0.615552
-1.35578 -4.00902 13.7661 -0.0962635 -0.707406 -0.700222
-1.20071 -4.19947 13.9594 0.0034246 -0.747084 -0.664721
-0.653361 -4.94763 15.609 0.649904 -0.739136 -0.176924
-1.64827 -3.58965 13.432 -0.281278 -0.669369 -0.687624
-1.83036 -3.35989 13.3045 -0.381737 -0.670055 -0.636634
-1.95401 -3.48635 13.5001 -0.434606 -0.634678 -0.638985
-2.29589 -3.44896 13.8136 -0.628047 -0.582428 -0.516076
-2.22696 -4.00035 14.3517 -0.628135 -0.58891 -0.508557
-2.50077 -3.66158 14.3101 -0.57257 -0.603269 -0.555185
-2.57735 -3.79604 14.4906 -0.330628 -0.619493 -0.711979
-2.84305 -3.63725 14.4481 -0.145872 -0.645648 -0.749573
-3.71303 -3.21234 14.0876 -0.010909 -0.801225 -0.598264
-4.33756 -3.27105 14.1713 -0.0241497 -0.775497 -0.630889
-4.29081 -3.13122 13.974 -0.0426979 -0.846611 -0.530496
-3.62042 -3.00793 13.7702 0.00603962 -0.879346 -0.476145
-4.14103 -3.04173 13.8128 -0.00588233 -0.881169 -0.472766
-4.29124 -2.89865 13.4938 -0.0386236 -0.930568 -0.364077
-4.24667 -2.79609 13.1861 -0.0376101 -0.960673 -0.275125
-4.94463 -2.77507 13.3053 -0.0981585 -0.944745 -0.312766
-5.32259 -2.84554 13.6102 -0.0698709 -0.900174 -0.42989
-5.78526 -2.47851 12.6591 -0.0636564 -0.960044 -0.272515
-5.45177 -2.40436 12.2598 -0.105277 -0.955632 -0.275109
-5.61111 -2.5674 12.8976 -0.11413 -0.953488 -0.278991
-5.92709 -2.37709 12.3108 -0.0304426 -0.96506 -0.260256
-6.19352 -2.32327 12.0776 0.0757325 -0.957063 -0.279814
-6.26783 -2.26775 11.8981 0.0257123 -0.926451 -0.375537
-6.51827 -2.36138 12.0546 0.129662 -0.903871 -0.407682
-6.78947 -2.33992 11.94 0.0359855 -0.839399 -0.542323
-6.68742 -2.47201 12.204 0.227022 -0.87055 -0.436582
-6.95728 -2.56213 12.2516 0.133315 -0.816887 -0.56118
-6.75469 -2.65203 12.5084 0.345599 -0.819698 -0.456789
-6.98604 -2.82274 12.6322 0.257038 -0.802092 -0.539054
-7.44025 -2.82357 12.5392 -0.0283991 -0.734536 -0.677976
-7.3696 -2.54773 12.2475 -0.151369 -0.695338 -0.702562
-7.17548 -2.58594 12.2666 -0.0073362 -0.760207 -0.64964
-7.57068 -3.05471 12.7932 -0.052368 -0.739655 -0.670945
-7.3801 -3.07555 12.8249 0.0846071 -0.782547 -0.616815
-7.74957 -3.2502 13.0387 -0.0972424 -0.773009 -0.626898
-7.88505 -3.45744 13.3272 -0.108149 -0.810728 -0.575347
-8.07559 -3.70472 13.7387 -0.125609 -0.839476 -0.52868
-8.28878 -3.63508 13.7493 -0.382603 -0.757193 -0.529409
-8.48909 -3.79873 14.1675 -0.506851 -0.707417 -0.492609
-8.49182 -4.14615 14.6659 -0.476043 -0.739839 -0.475416
-8.33859 -4.03423 14.3869 -0.299752 -0.79536 -0.526831
-8.33079 -4.44417 15.0298 -0.494004 -0.814887 -0.303181
-7.72897 -4.80438 15.5826 -0.270869 -0.958923 -0.0842397
-7.94447 -4.68197 15.2777 -0.25956 -0.916582 -0.304147
-7.80248 -4.77209 15.7738 -0.336368 -0.927485 0.163178
-8 -4.63668 15.8958 -0.502908 -0.750257 0.429183
-7.81234 -4.57934 16.1017 -0.455761 -0.560746 0.691264
-7.49864 -4.84731 15.8888 -0.25933 -0.948466 0.182101
-6.56814 -4.41052 16.5988 -0.150115 -0.328241 0.93259
-6.13948 -4.56797 16.606 -0.19046 -0.467079 0.86346
-6.94271 -3.88014 16.6656 -0.166828 -0.0907798 0.981798
-6.51978 -3.77707 16.7371 -0.156262 -0.0219019 0.987473
-6.20993 -3.90402 16.774 -0.166758 -0.113755 0.979414
-6.06516 -3.70645 16.8129 -0.157821 0.00285006 0.987464
-6.24743 -3.51236 16.7778 -0.155347 0.04074 0.98702
-5.81919 -3.39309 16.8428 -0.15221 0.0678396 0.986017
-5.5696 -2.98111 16.8467 -0.142995 0.107509 0.983867
-4.9805 -3.12074 16.9462 -0.122507 0.0862561 0.988712
-4.31666 -1.30457 16.7257 -0.0239319 0.168226 0.985458
-4.18388 -0.747799 16.6339 -0.0264922 0.166665 0.985658
-3.59917 -1.022 16.6722 -0.0071616 0.164161 0.986408
-1.42807 -0.793057 16.7236 0.132552 0.186231 0.973524
-1.78177 -0.419905 16.6804 0.0740702 0.195154 0.977972
-1.48212 -1.38401 16.8341 0.113135 0.172561 0.97848
-1.23024 -1.28316 16.7748 0.243442 0.173226 0.954321
-1.66642 -1.54127 16.8771 0.0436305 0.15893 0.986325
-1.86749 -1.67399 16.8974 -0.0277702 0.141837 0.9895
-1.61109 -2.21066 16.9784 0.0474701 0.122529 0.991329
-1.23686 -2.55649 16.97 0.191093 0.102025 0.976255
-1.4661 -2.8629 17.0335 0.0883311 0.0910009 0.991926
-1.49021 -3.21711 17.0521 0.0887688 0.0184802 0.995881
-1.69518 -2.77144 17.0365 -0.00779108 0.0799923 0.996765
-1.79895 -3.24902 17.0629 -0.0353885 0.0410999 0.998528
-1.65318 -3.54105 17.0633 0.0454161 -0.0190758 0.998786
-1.3266 -2.88092 17.0189 0.209182 0.0402472 0.977048
-1.1225 -3.53915 16.969 0.35645 -0.0192289 0.934117
-1.22703 -3.86701 16.9927 0.280402 -0.118024 0.952599
-1.30198 -3.41104 17.0198 0.228026 -0.000589535 0.973655
-1.37873 -3.77324 17.0282 0.133526 -0.0423169 0.990141
-1.61928 -3.95932 17.0398 0.0616235 -0.118484 0.991042
-1.38791 -4.00251 17.0044 0.144953 -0.169924 0.974738
-1.64952 -4.62731 16.9058 0.122396 -0.268261 0.955539
-1.35722 -4.9738 16.6587 0.2381 -0.701781 0.671425
-1.18038 -4.88364 16.6523 0.427095 -0.605208 0.671799
-1.31571 -5.11811 16.4643 0.331357 -0.842292 0.425143
-1.42582 -5.24942 16.1735 0.195747 -0.964674 0.176316
-1.54017 -5.20315 16.3959 0.142976 -0.924569 0.353171
-1.76922 -5.19857 16.4606 0.0560565 -0.910863 0.408884
-1.82908 -5.2438 16.3277 0.0260422 -0.974687 0.222052
-1.4442 -5.25356 15.9446 0.0834141 -0.989935 -0.114328
-1.70139 -5.26544 16.156 -0.0030938 -0.999944 0.0101278
-1.76191 -5.24538 15.8853 -0.0210045 -0.984476 -0.174259
-2.14649 -5.25119 16.0097 -0.0688164 -0.990235 -0.121242
-2.53239 -5.16735 15.7876 -0.101932 -0.962664 -0.250775
-1.41968 -5.18881 15.6442 0.00909092 -0.9528 -0.303461
-1.16397 -5.15927 15.6459 0.16717 -0.948675 -0.268458
-0.977022 -5.09277 15.5692 0.272641 -0.922266 -0.274031
-1.39579 -4.94066 15.1518 -0.0796828 -0.880233 -0.467804
-1.32183 -5.09805 15.4501 0.0100537 -0.899622 -0.436555
-1.63802 -5.03039 15.346 -0.0792093 -0.859929 -0.504229
-1.56708 -4.56724 14.504 -0.240843 -0.83011 -0.502903
-1.32173 -4.81339 14.8704 -0.100982 -0.878702 -0.466568
-1.6427 -4.73811 14.8535 -0.21538 -0.85719 -0.4678
-1.57731 -4.34797 14.1976 -0.253911 -0.748789 -0.612245
-1.82466 -4.16484 14.1296 -0.448672 -0.68733 -0.571202
-1.75491 -4.40688 14.3823 -0.4054 -0.741518 -0.534605
-1.76963 -3.94979 13.8456 -0.371894 -0.671985 -0.640415
-1.56948 -3.96981 13.768 -0.204301 -0.714362 -0.669289
-1.95208 -3.8725 13.8956 -0.496195 -0.633768 -0.593404
-2.0884 -3.84817 13.9938 -0.584623 -0.610264 -0.534597
-2.00105 -4.25833 14.4046 -0.542758 -0.652646 -0.528647
-2.77769 -3.91116 14.6392 -0.170602 -0.597003 -0.783889
-3.19848 -3.61545 14.4698 -0.0473332 -0.622074 -0.781526
-2.97202 -3.89191 14.65 -0.0776104 -0.583868 -0.80813
-3.28767 -3.40001 14.2858 -0.0397108 -0.705099 -0.707996
-4.22585 -3.37509 14.2832 -0.01688 -0.706878 -0.707134
-3.89129 -3.53032 14.4193 -0.0158075 -0.63706 -0.770652
-4.34954 -3.64197 14.5122 -0.0021276 -0.570413 -0.821355
-4.78509 -3.50726 14.4118 0.009183 -0.627789 -0.778329
-4.80952 -3.3512 14.2761 0.00325894 -0.702003 -0.712166
-4.87146 -3.15117 14.0561 -0.0192062 -0.784098 -0.620339
-4.48063 -2.98028 13.7196 -0.0735522 -0.892041 -0.44593
-5.869 -2.6485 13.2216 -0.0339347 -0.943266 -0.330299
-5.98851 -2.51883 12.8284 0.0100993 -0.955089 -0.296147
-6.15528 -2.48274 12.6772 0.124579 -0.952062 -0.279388
-6.14588 -2.64172 13.1732 0.147274 -0.93755 -0.315136
-6.32147 -2.3954 12.2477 0.230978 -0.920519 -0.315109
-7.25876 -2.85274 12.5842 0.104775 -0.778927 -0.6183
-7.61303 -3.38972 13.2176 0.0420145 -0.81677 -0.575432
-7.73188 -3.60125 13.5429 0.0911094 -0.868599 -0.487068
-7.82661 -3.75961 13.8369 0.0591805 -0.87361 -0.483015
-8.2171 -4.27796 14.6878 -0.180572 -0.804206 -0.566257
-7.90018 -4.55653 15.0001 -0.137457 -0.839381 -0.525876
-8.25104 -4.42329 14.9165 -0.278781 -0.834738 -0.474861
-6.96743 -4.78542 15.3078 0.0387924 -0.852063 -0.522001
-7.33154 -4.7884 15.3245 -0.049278 -0.914583 -0.401385
-7.50057 -4.67963 15.1306 -0.0483947 -0.855075 -0.516241
-7.73216 -4.71188 15.2538 -0.131018 -0.902687 -0.409867
-7.55941 -4.81979 15.4709 -0.145177 -0.946249 -0.289026
-7.21472 -4.87994 15.5424 -0.0569432 -0.960115 -0.273746
-7.31983 -4.90224 15.7251 -0.153718 -0.988053 -0.0110176
-6.69695 -4.7225 16.3951 -0.14933 -0.617649 0.772146
-6.55636 -4.84835 16.3006 -0.0980929 -0.796152 0.597093
-6.14129 -4.75568 16.4721 -0.187545 -0.665854 0.722126
-6.22108 -4.86486 16.3178 -0.113527 -0.853701 0.508238
-5.58104 -4.67545 16.7052 -0.221477 -0.521921 0.823739
-5.57148 -4.48717 16.7878 -0.203273 -0.274819 0.939763
-6.50402 -4.12109 16.6917 -0.154585 -0.209965 0.965411
-6.15015 -4.12389 16.7522 -0.188848 -0.201212 0.961171
-5.78211 -4.05081 16.8396 -0.168973 -0.156821 0.973065
-5.2301 -4.37023 16.8743 -0.12397 -0.194574 0.973022
-5.20254 -4.04925 16.9224 -0.115208 -0.0934761 0.988933
-5.63755 -3.87336 16.8808 -0.135649 -0.0440343 0.989778
-5.29336 -3.41477 16.9241 -0.125103 0.0287612 0.991727
-4.77737 -3.27922 16.9758 -0.0830975 0.0395294 0.995757
-4.2944 -2.89649 16.9837 -0.0269989 0.113723 0.993146
-3.29217 -2.99055 16.9795 0.00343037 0.105393 0.994425
-3.45259 -2.70182 16.9471 0.0173571 0.131315 0.991189
-3.50347 -2.27524 16.8875 0.0106342 0.15299 0.988171
-3.1088 -2.25571 16.8847 -0.024114 0.134711 0.990592
-4.10435 -1.56222 16.7764 -0.0271955 0.169944 0.985078
-3.6201 -1.52712 16.7672 -0.00341542 0.168967 0.985616
-3.26713 -1.63756 16.7932 -0.0390567 0.161314 0.98613
-1.91743 -1.17547 16.8198 -0.00319521 0.156127 0.987732
-1.34389 -1.36283 16.811 0.152733 0.188648 0.970095
-2.14413 -1.18473 16.8166 -0.045516 0.143373 0.988621
-2.15866 -1.82293 16.9027 -0.0656767 0.123798 0.990132
-1.86656 -2.06881 16.9498 -0.0490011 0.124427 0.991018
-2.05056 -3.57169 17.0577 -0.050491 -0.0284111 0.99832
-1.7597 -3.74839 17.058 -0.0094363 -0.056832 0.998339
-1.67121 -4.36508 16.9685 0.0820875 -0.18722 0.978882
-1.92048 -4.00575 17.0343 -0.0377152 -0.107418 0.993498
-2.17398 -4.81576 16.8871 -0.0329299 -0.392317 0.91924
-1.89602 -4.82009 16.8703 0.082695 -0.441341 0.893521
-1.99076 -4.56773 16.9551 0.0213328 -0.188799 0.981784
-2.2255 -4.93379 16.8048 -0.0183645 -0.655076 0.75534
-2.23478 -5.1981 16.4935 -0.0103326 -0.929802 0.367916
-2.59879 -5.18953 16.4746 -0.115645 -0.93637 0.331418
-2.19611 -5.24478 16.2891 -0.0414605 -0.993623 0.104849
-2.44245 -5.23525 16.168 -0.120124 -0.992701 -0.0107008
-3.15106 -5.14255 16.3005 0.0480584 -0.997403 0.0536428
-3.15615 -5.12758 16.0282 0.0105582 -0.992405 -0.122559
-2.98095 -5.14755 16.3147 -0.125545 -0.988184 0.0879256
-3.04348 -5.08389 15.8152 -0.0679789 -0.948829 -0.308388
-2.60592 -5.12019 15.6936 -0.118753 -0.91648 -0.382051
-2.78551 -5.02154 15.5619 -0.138301 -0.861971 -0.487729
-3.0259 -4.93042 15.4695 -0.0587936 -0.839508 -0.540156
-3.25865 -4.99085 15.5726 0.0314135 -0.897135 -0.440637
-3.23748 -4.89418 15.4164 0.0283041 -0.793573 -0.607816
-2.76669 -4.92684 15.4182 -0.11395 -0.771368 -0.626105
-1.95345 -5.20124 15.7698 -0.0641275 -0.948164 -0.311245
-1.76652 -5.13305 15.5445 -0.065122 -0.906793 -0.416516
-1.79327 -4.79517 15.0191 -0.201688 -0.808675 -0.552599
-1.86293 -4.91153 15.2013 -0.127148 -0.816223 -0.563571
-2.15231 -4.61026 14.9366 -0.329267 -0.650457 -0.684463
-1.88392 -4.62625 14.8104 -0.357206 -0.76808 -0.531467
-2.15302 -4.40184 14.7355 -0.493347 -0.639446 -0.589676
-1.98709 -4.42326 14.6153 -0.467012 -0.717966 -0.516163
-2.35785 -4.07718 14.5924 -0.556292 -0.600707 -0.574186
-2.44966 -4.15821 14.7332 -0.388813 -0.584443 -0.712215
-2.5795 -4.11049 14.7453 -0.217233 -0.590774 -0.777043
-2.79081 -4.13122 14.805 -0.111308 -0.574503 -0.810899
-3.14399 -4.07211 14.7907 -0.0208841 -0.558261 -0.829403
-3.33256 -3.8237 14.63 -0.0136445 -0.568026 -0.822897
-5.44221 -3.59501 14.4446 0.0461713 -0.606904 -0.793433
-5.76914 -3.41112 14.2803 0.0589123 -0.625755 -0.777792
-5.16344 -3.45397 14.349 0.0395388 -0.639357 -0.767893
-5.57653 -3.27806 14.1772 0.0378 -0.678575 -0.733558
-5.1096 -3.27339 14.1836 0.0126486 -0.726255 -0.687309
-5.18179 -2.96808 13.8097 -0.0382403 -0.84025 -0.540848
-6.12064 -2.69836 13.3529 0.11963 -0.914423 -0.386677
-5.87409 -2.79371 13.5559 -0.00115839 -0.884076 -0.467341
-6.33438 -2.61611 12.9364 0.380221 -0.871073 -0.310909
-6.37453 -2.70301 13.1375 0.417013 -0.855541 -0.306839
-6.39141 -2.52764 12.6008 0.325553 -0.896355 -0.300935
-6.56048 -2.54336 12.464 0.324925 -0.876376 -0.355511
-6.57548 -2.66439 12.729 0.450699 -0.810523 -0.374063
-6.57796 -2.8646 13.1983 0.579183 -0.757007 -0.302469
-6.66219 -2.84115 12.9905 0.532407 -0.77677 -0.336408
-6.96416 -3.27278 13.4356 0.535903 -0.776322 -0.331863
-6.90796 -3.13398 13.2056 0.51081 -0.77059 -0.381136
-6.68854 -3.01592 13.3449 0.609988 -0.73378 -0.299135
-6.79464 -2.87792 12.8784 0.503173 -0.764726 -0.402505
-6.90349 -2.9039 12.8081 0.391687 -0.786257 -0.477893
-7.1108 -2.88449 12.6587 0.239471 -0.775485 -0.584189
-7.3983 -3.35785 13.2177 0.189291 -0.837994 -0.511796
-7.35132 -3.47015 13.4516 0.285081 -0.857901 -0.427475
-7.64538 -3.81316 13.9876 0.173297 -0.861035 -0.478108
-8.00648 -4.03179 14.288 -0.0188258 -0.847818 -0.529953
-7.85296 -4.08803 14.3819 0.0373713 -0.793893 -0.606907
-7.59395 -4.00394 14.3034 0.132773 -0.803761 -0.579948
-7.99317 -4.22531 14.5684 -0.0491939 -0.80419 -0.592333
-7.20026 -4.61506 15.0432 0.0484796 -0.778699 -0.625522
-6.74846 -4.87524 15.5042 0.0183435 -0.933661 -0.357687
-6.76435 -4.94279 15.7393 -0.0270996 -0.989858 -0.13945
-6.45417 -4.92478 15.7194 0.035644 -0.975343 -0.217799
-6.1025 -4.93465 15.8175 -0.00131527 -0.99062 -0.136641
-6.25349 -4.88335 15.6015 0.0337029 -0.94394 -0.328393
-6.49085 -4.95362 15.924 0.00348105 -0.99999 0.00278253
-6.05618 -4.95059 16.1082 -0.0953728 -0.99279 0.072612
-6.83212 -4.94683 16.022 -0.0848709 -0.98969 0.115372
-6.50328 -4.93218 16.1364 -0.0370872 -0.952369 0.302684
-5.89901 -4.91533 16.3584 -0.189884 -0.841931 0.505071
-6.18066 -4.91719 16.2057 -0.100873 -0.964254 0.24503
-5.60264 -4.84962 16.5501 -0.199062 -0.726503 0.657699
-5.40919 -4.91212 16.5153 -0.141318 -0.801814 0.580624
-5.30304 -4.77231 16.7049 -0.147784 -0.685386 0.713026
-4.81814 -4.81723 16.7384 -0.0840832 -0.627152 0.774346
-5.04304 -4.93246 16.5746 -0.12314 -0.791533 0.598592
-5.18016 -4.69796 16.7736 -0.115553 -0.462088 0.879274
-5.32129 -4.56272 16.8132 -0.133525 -0.328128 0.935149
-4.43378 -3.48569 17.0028 -0.0648318 -0.0158521 0.99777
-5.31061 -3.61566 16.9267 -0.111294 -0.00290358 0.993783
-4.80301 -3.84448 16.9675 -0.0661018 -0.0486358 0.996627
-4.81407 -4.62633 16.8382 -0.062621 -0.32595 0.943311
-4.93235 -4.2169 16.9297 -0.0515371 -0.157479 0.986177
-2.78657 -2.37643 16.9173 -0.0749056 0.114428 0.990604
-2.69494 -2.98405 16.9881 -0.0394909 0.0929073 0.994891
-2.41746 -1.76307 16.8749 -0.0851386 0.123583 0.988675
-2.2748 -1.42076 16.8402 -0.0707058 0.133162 0.988569
-1.93013 -2.43613 16.99 -0.0597088 0.108852 0.992263
-2.18874 -2.50326 16.9777 -0.077132 0.108261 0.991126
-1.98677 -2.87466 17.0291 -0.0679851 0.0808917 0.994402
-2.75469 -3.45415 17.0139 -0.0433796 0.0325102 0.99853
-1.89101 -4.30528 16.9873 0.00429201 -0.140119 0.990125
-2.15164 -4.12629 17.0044 -0.0465092 -0.105643 0.993316
-2.44345 -4.55454 16.942 -0.0482919 -0.18395 0.981749
-2.30538 -4.63565 16.9377 -0.0829041 -0.286229 0.954568
-2.7124 -4.88033 16.7986 -0.0798949 -0.537896 0.839217
-2.92959 -5.00362 16.6572 -0.0897946 -0.754879 0.649689
-3.0264 -4.88611 16.7663 -0.0181452 -0.624394 0.780899
-2.32881 -5.11196 16.6191 -0.044471 -0.745973 0.66449
-3.02267 -5.09566 16.502 -0.0424733 -0.912643 0.406546
-3.42519 -5.16775 16.337 0.017319 -0.996359 0.0834808
-3.58644 -5.15085 16.2915 -0.0245331 -0.996865 0.0752247
-3.59314 -5.14058 16.0991 -0.00625058 -0.994129 -0.108018
-4.01959 -5.14638 16.2479 -0.0320515 -0.999416 0.0118359
-3.89961 -5.12485 15.9879 -0.0272557 -0.986263 -0.162917
-4.29363 -5.12975 16.1412 -0.0448539 -0.9947 -0.0925175
-4.26341 -5.08271 15.8745 -0.0384475 -0.970444 -0.238243
-4.4806 -5.09764 15.9615 -0.047659 -0.982165 -0.181878
-4.86494 -5.0987 16.1306 -0.0790067 -0.996693 -0.0190254
-4.57529 -5.11255 16.3031 -0.0728982 -0.987212 0.141766
-5.03439 -5.0617 15.9565 -0.0725408 -0.981836 -0.175319
-4.73566 -5.03627 15.7639 -0.0537597 -0.958525 -0.279893
-4.40924 -5.03619 15.7277 -0.0323543 -0.955188 -0.294226
-4.13348 -5.0184 15.6397 -0.032673 -0.932862 -0.358749
-4.54334 -4.98049 15.5734 -0.0410938 -0.920263 -0.389137
-4.24436 -4.92678 15.4602 -0.0277545 -0.860587 -0.508547
-3.54418 -5.05393 15.6993 0.00866186 -0.938471 -0.345249
-4.01502 -4.8682 15.3604 -0.0104166 -0.801998 -0.597236
-4.41623 -4.82333 15.3183 -0.0346052 -0.773697 -0.63261
-4.14607 -4.77232 15.2501 -0.00677217 -0.664306 -0.74743
-3.70155 -4.81924 15.3039 0.0223843 -0.744913 -0.666786
-3.79551 -4.97751 15.5165 -0.00078372 -0.874345 -0.485305
-3.82096 -3.85514 14.6436 -0.00117736 -0.527389 -0.849623
-3.91265 -4.01682 14.7442 0.00459568 -0.536571 -0.843843
-3.22664 -4.23471 14.8998 0.0104047 -0.538388 -0.842633
-3.57139 -4.4088 14.9965 0.0186986 -0.55369 -0.832513
-4.02642 -4.20482 14.8613 0.00669506 -0.528031 -0.849199
-4.48767 -3.82553 14.6328 -0.00445966 -0.546912 -0.837178
-4.48362 -3.97825 14.729 -0.0122891 -0.525785 -0.850529
-5.07635 -3.90746 14.6904 0.00676718 -0.552344 -0.833589
-5.11805 -3.71131 14.5501 0.0209248 -0.57973 -0.81454
-5.37093 -3.87748 14.6576 0.0425212 -0.573489 -0.818109
-5.98402 -3.6512 14.4455 0.0989515 -0.611266 -0.785215
-5.70502 -3.72106 14.5234 0.0557775 -0.60158 -0.796863
-5.77533 -3.1048 13.998 0.0220298 -0.749063 -0.662132
-5.93584 -2.96066 13.8175 0.0204897 -0.817821 -0.575108
-6.25719 -3.09988 13.9434 0.11051 -0.710528 -0.694937
-6.17022 -2.87362 13.6552 0.113962 -0.840405 -0.529842
-6.25756 -2.7869 13.4757 0.231972 -0.875998 -0.422868
-6.39236 -2.91725 13.643 0.365486 -0.818472 -0.443309
-6.34942 -3.04029 13.8496 0.168635 -0.796152 -0.581123
-6.42347 -2.79404 13.3031 0.496284 -0.806535 -0.321253
-6.59325 -3.08324 13.732 0.562916 -0.739771 -0.368599
-6.88386 -3.37042 13.8105 0.567861 -0.736453 -0.367657
-7.1384 -3.21818 13.1394 0.368632 -0.811632 -0.453171
-7.23754 -3.16457 12.9838 0.265079 -0.795975 -0.544202
-7.43959 -3.71788 13.9137 0.299745 -0.847237 -0.43857
-7.19753 -3.60658 13.8946 0.382298 -0.815744 -0.434062
-7.07652 -3.49067 13.7926 0.471083 -0.792798 -0.386721
-7.11849 -3.33758 13.3973 0.413126 -0.82356 -0.388685
-7.31388 -3.82109 14.1551 0.255545 -0.786329 -0.56248
-7.41866 -4.08236 14.4431 0.156314 -0.731397 -0.663795
-7.11094 -4.21334 14.6347 0.133341 -0.686362 -0.714932
-6.98592 -4.50632 14.9483 0.0955655 -0.720127 -0.687229
-6.33701 -4.81588 15.4371 0.0593508 -0.865179 -0.497938
-6.05511 -4.81446 15.4629 -0.0132561 -0.891535 -0.452759
-5.89246 -4.93271 15.7539 -0.0669205 -0.961188 -0.267654
-6.01205 -4.95658 15.9631 -0.126345 -0.986127 -0.10766
-5.48718 -5.02114 15.9522 -0.106006 -0.977996 -0.179686
-5.64896 -5.01955 16.1489 -0.134619 -0.990493 0.0283004
-5.28343 -5.04567 16.2802 -0.116687 -0.97668 0.18022
-5.64694 -4.98992 16.2831 -0.160148 -0.94876 0.272408
-5.51901 -4.95795 16.4093 -0.153416 -0.878981 0.451504
-5.19323 -5.01297 16.4054 -0.130946 -0.880391 0.455812
-4.71526 -5.02873 16.5092 -0.0978173 -0.880988 0.462917
-4.89893 -5.06937 16.3709 -0.108144 -0.949892 0.293275
-4.55698 -4.96789 16.61 -0.075869 -0.761999 0.643119
-4.35852 -4.81871 16.7706 -0.0657121 -0.547043 0.834521
-3.81933 -4.96572 16.6873 -0.0402634 -0.736899 0.674802
-3.14291 -4.97709 16.6745 -0.000747132 -0.759431 0.650588
-3.81979 -4.8784 16.773 -0.0226459 -0.631047 0.775414
-3.8031 -4.75345 16.8509 -0.0526669 -0.417327 0.907229
-3.76383 -4.62341 16.8968 -0.0161074 -0.254867 0.966842
-4.40087 -4.56645 16.8783 -0.0525119 -0.27248 0.960727
-3.82129 -3.65209 17.0175 -0.0133732 -0.0234703 0.999635
-4.0281 -3.97144 16.995 -0.0324841 -0.097104 0.994744
-3.56147 -3.94241 17.0017 0.00655367 -0.0976689 0.995197
-3.44626 -3.36499 17.0075 0.00284836 0.0411613 0.999148
-3.02211 -3.71884 17.0079 0.00266823 -0.0484552 0.998822
-2.54202 -3.69967 17.0157 -0.0494379 -0.0679442 0.996463
-2.73423 -4.08245 16.9798 -0.0329271 -0.0957529 0.99486
-2.81364 -4.45234 16.9353 -0.0364028 -0.137739 0.989799
-3.01651 -4.61849 16.8948 -0.0115838 -0.23544 0.97182
-3.42046 -4.79353 16.8306 0.00172591 -0.436304 0.899798
-2.93879 -4.75547 16.8496 -0.0223657 -0.407718 0.912834
-3.8378 -4.361 16.9458 -0.0185866 -0.165047 0.986111
-3.0723 -4.31344 16.9524 0.00266677 -0.129448 0.991583
-4.23546 -3.23 17.0111 -0.0107776 0.0483056 0.998774
-3.49827 -5.0968 16.5267 -0.00143018 -0.867402 0.497607
-4.12141 -5.11634 16.4461 -0.0663787 -0.935941 0.345843
-4.43505 -5.0862 16.44 -0.0870546 -0.899109 0.428982
-5.30138 -5.05311 16.0901 -0.0977264 -0.994484 -0.0380959
-5.2146 -5.016 15.8043 -0.083435 -0.958157 -0.273812
-5.08669 -4.95229 15.5951 -0.0748517 -0.920677 -0.38308
-4.82977 -4.90602 15.4544 -0.0531417 -0.853996 -0.517559
-4.84348 -4.83392 15.3589 -0.0616378 -0.761923 -0.644728
-4.56786 -4.66965 15.1708 -0.0277567 -0.617686 -0.785935
-4.14918 -4.51001 15.0542 -0.00102065 -0.559629 -0.828743
-3.86272 -4.69159 15.1849 0.0181555 -0.601269 -0.79884
-4.45125 -4.24308 14.8873 -0.0168979 -0.534531 -0.84498
-5.00136 -4.68526 15.2126 -0.0253708 -0.613412 -0.789356
-5.0539 -4.1699 14.8579 -0.00837642 -0.55012 -0.835044
-4.81392 -4.49221 15.0582 -0.0409674 -0.558517 -0.828481
-5.31749 -4.07655 14.7904 0.0296511 -0.559622 -0.828217
-5.67791 -4.46516 15.049 0.0232248 -0.598493 -0.800791
-5.68982 -4.0986 14.7878 0.0477801 -0.563318 -0.824857
-5.95958 -3.92435 14.6581 0.0851539 -0.575958 -0.813032
-6.2433 -3.5199 14.3008 0.144382 -0.615208 -0.775031
-6.32519 -3.31007 14.1193 0.172652 -0.637972 -0.750455
-6.01277 -3.3069 14.1692 0.0933721 -0.653573 -0.751082
-6.49388 -3.15073 13.925 0.354919 -0.691087 -0.629628
-6.75328 -3.39358 13.9848 0.491317 -0.685973 -0.536701
-6.96378 -3.58925 14.0684 0.418687 -0.715509 -0.559239
-7.10531 -3.72495 14.1431 0.343008 -0.72559 -0.596544
-7.0967 -3.93898 14.3858 0.242448 -0.677788 -0.694135
-6.94972 -4.13582 14.5995 0.185909 -0.634701 -0.750062
-6.39521 -4.18684 14.7681 0.156415 -0.589973 -0.792128
-6.73782 -4.01631 14.5605 0.206751 -0.60136 -0.771765
-6.33807 -3.93754 14.6059 0.164829 -0.576737 -0.800128
-6.66966 -4.52866 15.0138 0.105461 -0.717546 -0.688481
-6.1315 -4.41507 14.9834 0.0782195 -0.667938 -0.740095
-6.5173 -4.67993 15.2099 0.074407 -0.78025 -0.621026
-6.10758 -4.56722 15.1212 0.0359437 -0.709636 -0.703651
-5.7559 -4.61546 15.1838 0.00188272 -0.733705 -0.679465
-6.10355 -4.69885 15.2794 0.0260634 -0.806595 -0.590529
-5.61158 -4.75989 15.3558 -0.0464325 -0.816099 -0.576044
-5.58663 -4.926 15.6394 -0.0803748 -0.919735 -0.384224
-5.282 -4.86651 15.4722 -0.0915558 -0.854388 -0.511506
-5.41069 -4.63031 15.188 -0.0497299 -0.728488 -0.683251
-5.95484 -4.28176 14.8941 0.0657306 -0.573386 -0.816644
-6.15167 -4.25368 14.853 0.11572 -0.578851 -0.80718
-6.55541 -4.37359 14.8877 0.141332 -0.639181 -0.755958
-6.48983 -3.44797 14.1841 0.233643 -0.619985 -0.749019
-6.30773 -3.69963 14.4331 0.156004 -0.605183 -0.780651
-6.72353 -3.70209 14.3202 0.294177 -0.644893 -0.705389
-6.62931 -3.42778 14.1047 0.372682 -0.64804 -0.664193
-6.52829 -3.767 14.4263 0.210491 -0.599437 -0.772249
-3.18625 -4.71631 15.2265 0.017128 -0.6499 -0.759827
-3.75871 -5.13634 16.4335 -0.0149183 -0.964982 0.261892
-3.93318 -5.05551 16.5674 -0.0516001 -0.823507 0.564955
-2.88764 -4.31464 14.9419 -0.0932025 -0.561319 -0.822335
-2.56614 -4.37227 14.9289 -0.229041 -0.556983 -0.798317
-2.46383 -4.69434 15.1204 -0.184671 -0.599022 -0.779146
-2.7198 -4.77829 15.2478 -0.119584 -0.654019 -0.746967
-2.96055 -4.76203 15.2598 -0.0713819 -0.701488 -0.709097
-2.19919 -4.98554 15.3787 -0.122117 -0.807701 -0.576806
-2.20121 -5.07675 15.5287 -0.101473 -0.858946 -0.501912
-2.09122 -4.78676 15.1033 -0.181488 -0.745294 -0.641559
-2.28284 -4.65168 15.027 -0.250847 -0.639769 -0.726479
-2.36361 -4.88256 15.2792 -0.167572 -0.726038 -0.666925
-3.03983 -4.54706 15.0997 -0.00862766 -0.566313 -0.824145
-3.50944 -5.10898 15.8911 0.0033906 -0.977217 -0.212218
-3.86838 -5.07439 15.7741 -0.0265664 -0.955924 -0.292411
-6.17937 -4.3271 16.6947 -0.193555 -0.302952 0.933143
-5.49813 -2.70634 13.3312 -0.103613 -0.942957 -0.316381
-2.86894 -1.21583 16.7586 -0.0996321 0.142586 0.984755
-3.0257 -1.48618 16.7833 -0.0769986 0.139029 0.98729
-4.10688 -2.31158 16.9038 -0.00214326 0.151057 0.988523
-8.18053 -3.91656 14.128 -0.20514 -0.836335 -0.508391
-4.95839 -2.67436 12.9604 -0.10372 -0.95871 -0.264797
-1.14912 -5.04182 16.4394 0.486711 -0.727388 0.483754
-1.55742 -4.79235 16.8342 0.154027 -0.431322 0.888953
-7.197 -2.20049 11.8646 -0.276812 -0.632526 -0.723385
-7.04526 -1.86725 11.5249 -0.37338 -0.56198 -0.738083
-7.08276 -2.32189 11.9458 -0.118363 -0.743837 -0.657797
-0.652026 -4.84712 15.2929 0.643144 -0.723842 -0.249837
-6.00029 -0.108442 16.285 -0.127737 0.192378 0.972972
-7.08418 -1.52511 11.32 -0.512177 -0.398968 -0.760591
-6.49579 -0.915585 16.3761 -0.114439 0.188987 0.975289
-5.93958 -0.733209 16.4051 -0.113774 0.175832 0.977823
-8.48974 -2.17796 15.7396 -0.791232 0.142213 0.594749
-8.56644 -1.76588 15.51 -0.849953 0.179613 0.495298
-8.3782 -1.83246 15.7874 -0.74201 0.202081 0.639206
-8.26462 -1.30964 15.7311 -0.707005 0.249667 0.661672
-8.45129 -1.37218 15.5177 -0.790695 0.244638 0.561207
-8.39161 -2.40876 12.8361 -0.804802 -0.211171 -0.554707
-5.69514 -1.77484 10.7992 -0.252353 -0.800785 -0.543196
-0.915844 0.636591 12.8073 0.956547 0.19908 -0.213038
-0.509432 -4.49504 16.0208 0.87035 -0.32309 0.371623
-4.60969 2.95145 15.5717 -0.127821 0.395453 0.909549
-0.114545 -3.35688 15.1582 0.994144 -0.062521 0.088141
-5.44762 1.89439 15.8236 -0.179647 0.288659 0.940427
-7.50105 -0.552077 16.0287 -0.456189 0.269272 0.848165
-3.24503 -1.88566 10.5347 0.0982549 -0.867227 -0.488123
-0.637092 0.621374 15.6988 0.805904 0.384478 0.450218
-4.74777 3.62693 15.1031 -0.141233 0.694945 0.705057
-4.46008 3.79084 14.9648 -0.0730169 0.759439 0.646468
-4.88252 3.82171 14.8462 -0.148052 0.808771 0.569184
-7.08782 2.62074 14.4643 -0.754458 0.577241 0.312387
-6.86201 3.01846 14.1952 -0.754319 0.613935 0.232565
-0.172384 -0.990595 15.6851 0.995086 0.0777763 0.0612676
-1.97168 3.26278 14.5854 0.648213 0.64537 0.404125
-6.76678 3.03023 14.4341 -0.707712 0.639613 0.300065
-7.31673 2.39393 14.2114 -0.849316 0.517145 0.105937
-8.35631 -0.534418 13.2461 -0.911774 0.274498 -0.305481
-7.17668 1.37932 11.5478 -0.908971 0.0217395 -0.416291
-7.09208 1.70345 11.36 -0.929154 0.0153919 -0.369373
-6.49534 2.24496 9.9815 -0.878933 -0.238307 -0.413143
-0.588509 0.108779 13.7711 0.955372 0.220282 -0.196827
-0.558718 -0.404483 13.3872 0.95453 0.208884 -0.212695
-2.14645 3.59815 7.58685 0.9785 -0.13116 -0.159172
-2.31778 2.69631 7.70085 0.94737 -0.216219 -0.236092
-6.37969 3.33237 14.5518 -0.556398 0.699427 0.448578
-2.48424 4.10924 6.31302 0.844891 -0.224534 -0.485534
-5.48694 4.95895 12.5487 -0.366153 0.741085 0.562783
-6.25871 3.58494 14.2687 -0.568674 0.736326 0.366652
-7.22065 2.67515 12.7668 -0.967029 0.247142 -0.0614437
-7.12442 2.93128 12.3406 -0.968822 0.235603 -0.0766451
-6.75119 3.17876 10.1654 -0.958985 -0.0765445 -0.272925
-0.682293 -1.23598 12.6036 0.897788 0.0184517 -0.44004
-0.554092 -1.47826 12.863 0.91122 0.0254825 -0.411131
-1.39676 2.83653 13.5771 0.922509 0.306025 0.235214
-2.95283 4.39609 5.71831 0.418576 -0.395784 -0.817404
-5.97166 5.02098 12.0349 -0.631158 0.635042 0.445377
-6.22537 4.9663 11.6804 -0.744855 0.548926 0.379303
-6.6921 4.19335 10.5631 -0.972036 0.227675 -0.0575413
-6.72966 4.12584 11.3705 -0.924821 0.380382 -0.00395265
-6.20847 1.96181 9.54742 -0.866797 -0.27516 -0.415873
-1.2491 -0.106712 11.5818 0.895576 0.0800829 -0.437642
-1.31487 3.67534 11.1756 0.997538 0.0700994 -0.00191168
-1.35165 3.8334 11.6047 0.984639 0.169517 0.0418272
-1.45168 3.97278 12.2049 0.927861 0.331138 0.171525
-1.51654 4.03816 12.4066 0.9132 0.360252 0.190485
-1.58931 4.43721 12.0124 0.888046 0.369497 0.273582
-1.76662 4.9178 11.9154 0.82921 0.408121 0.381899
-1.71777 4.53349 12.2754 0.844986 0.448308 0.291578
-3.62034 2.90599 6.36654 0.0746345 -0.482227 -0.872861
-5.04501 3.32096 6.62176 -0.604281 -0.367518 -0.706948
-5.13879 4.11102 6.39293 -0.691019 -0.253955 -0.676757
-5.23475 5.59806 6.22907 -0.900816 -0.0611417 -0.429874
-5.42053 5.33457 6.66217 -0.902468 -0.0270307 -0.429909
-5.34794 6.09851 6.39873 -0.928829 -0.0431638 -0.367987
-2.49946 7.35093 10.4217 0.308157 0.69764 0.64679
-2.50301 6.98826 10.7899 0.258882 0.678768 0.687208
-1.32238 1.36366 11.7444 0.952963 0.0300755 -0.301591
-5.57832 6.57128 7.02764 -0.952595 -0.0447386 -0.300935
-5.43052 6.48025 6.56325 -0.959604 -0.0449522 -0.277738
-5.35431 8.35924 6.23107 -0.959372 0.160646 -0.231944
-5.73838 7.63181 7.70082 -0.983971 0.173592 -0.0408193
-5.67198 8.02663 7.66433 -0.984263 0.175583 0.01993
-5.75527 7.63505 8.40832 -0.963936 0.265214 0.0221032
-5.80213 7.44007 8.30539 -0.974069 0.223 -0.0382213
-5.86891 7.20636 8.69229 -0.962447 0.271434 0.00442348
-5.80192 7.432 8.7086 -0.941629 0.324691 0.088943
-5.67955 7.88688 8.38459 -0.934115 0.338313 0.1139
-5.70233 7.69864 8.69543 -0.873953 0.428419 0.229486
-5.62149 7.95991 8.48907 -0.848178 0.4519 0.276372
-5.53967 7.94655 8.7163 -0.766709 0.530252 0.361925
-5.57767 8.38365 7.92377 -0.903703 0.392034 0.172134
-5.59619 8.41057 7.69435 -0.968793 0.243303 0.0473688
-5.6641 8.01107 8.03983 -0.971149 0.235964 0.0345045
-5.53141 8.62366 7.45606 -0.935913 0.349264 0.0456214
-5.54483 7.58641 9.22288 -0.739193 0.550784 0.387595
-5.39065 7.79413 9.20601 -0.694909 0.580034 0.425043
-5.15685 7.73517 9.57502 -0.536441 0.656394 0.530451
-4.93172 7.90374 9.56795 -0.433761 0.690105 0.579316
-4.28307 8.46936 9.17674 -0.177335 0.754909 0.631399
-4.52699 7.97639 9.68464 -0.212271 0.739077 0.639301
-1.8606 6.13719 11.0714 0.710533 0.468097 0.525383
-1.8282 5.84768 11.2553 0.78249 0.380096 0.49319
-4.22394 7.83625 9.90761 -0.131832 0.716217 0.685312
-4.47986 7.75324 9.93675 -0.195621 0.706371 0.680273
-4.38606 7.60405 10.1075 -0.156659 0.695525 0.701215
-4.25745 8.13758 9.56978 -0.157701 0.737714 0.656436
-3.81139 8.0301 9.77592 -0.102979 0.723567 0.682529
-4.02488 8.20761 9.5439 -0.129803 0.74593 0.653253
-3.48504 8.17808 9.65872 -0.0396542 0.738905 0.672642
-3.05042 8.32782 9.49387 0.0681776 0.746633 0.661733
-3.26803 8.08761 9.76347 -0.00640251 0.724754 0.688978
-2.98523 7.85954 9.99208 0.0784806 0.728757 0.680261
-2.84228 8.1628 9.64156 0.200482 0.737507 0.644895
-2.78867 8.54138 9.17299 0.237611 0.752888 0.61376
-2.76102 7.8971 9.91113 0.220882 0.725682 0.651612
-2.51138 8.15312 9.50673 0.353005 0.718231 0.59961
-2.59217 8.55289 9.05215 0.365575 0.732382 0.574431
-2.82388 9.95164 7.54142 0.256507 0.707491 0.658529
-2.642 9.86244 7.54386 0.428363 0.682276 0.592457
-2.89976 10.5286 6.96633 0.339218 0.713754 0.612769
-2.42464 9.65409 7.5968 0.595584 0.622173 0.508114
-2.49351 9.96258 7.27574 0.600584 0.633035 0.488433
-2.53154 9.40864 7.9746 0.476167 0.662199 0.578582
-5.59352 2.91048 7.72264 -0.823749 -0.331104 -0.460226
-2.61735 9.23876 8.22735 0.362471 0.704138 0.610577
-2.37133 9.02 8.28977 0.550668 0.649024 0.524912
-4.78861 2.3189 7.17809 -0.586191 -0.516041 -0.624565
-1.45189 1.89201 11.2287 0.922257 -0.23431 -0.307476
-2.39978 8.77624 8.6198 0.487157 0.691703 0.533128
-2.22486 8.6342 8.6119 0.629193 0.626651 0.459809
-2.37573 9.35668 7.87905 0.609303 0.610883 0.505541
-2.27553 9.16117 7.99338 0.661636 0.588904 0.464144
-2.25316 9.47887 7.55405 0.73059 0.547049 0.408626
-2.32201 9.77377 7.276 0.732406 0.564633 0.380487
-2.50094 10.2519 6.8931 0.701255 0.590875 0.398884
-2.48731 10.5472 6.38176 0.796623 0.524893 0.299798
-2.34648 10.174 6.67553 0.796214 0.527978 0.295435
-2.55624 10.8554 6.04635 0.811598 0.492888 0.31364
-2.46579 10.7885 5.83885 0.904545 0.39074 0.170646
-2.36971 10.3975 6.26194 0.879455 0.442559 0.175215
-2.58117 11.1706 5.62733 0.889393 0.391173 0.236568
-2.59012 11.4323 5.19899 0.942379 0.319992 0.0976082
-2.44216 10.6434 5.0047 0.970587 0.15793 -0.18171
-2.25953 10.0501 5.40039 0.960659 0.100378 -0.258955
-2.09993 9.56703 5.89126 0.988092 0.0680522 -0.137995
-2.0998 8.72821 6.13482 0.984698 -0.088021 -0.150409
-2.17343 8.60214 5.68734 0.977901 -0.0918648 -0.187804
-2.28805 5.02627 12.5992 0.524508 0.659437 0.538547
-2.15828 4.99934 12.486 0.611295 0.603819 0.511586
-2.021 7.80686 6.43529 0.930829 -0.106859 -0.349483
-2.02199 8.31375 6.45334 0.956128 0.0337686 -0.290998
-1.95462 8.80858 6.75387 0.963155 0.0504385 -0.264176
-1.79275 8.24534 7.24751 0.965191 0.0690864 -0.252256
-1.75221 8.30317 7.49815 0.989478 0.124614 -0.0735198
-1.62998 7.25709 7.76718 0.991692 0.104786 -0.0746104
-1.69675 7.76455 7.54545 0.985779 0.0681635 -0.1536
-1.67072 7.27269 7.46656 0.972334 0.0703992 -0.222732
-2.14879 8.11443 5.98679 0.971791 -0.0946447 -0.21602
-1.92318 8.94795 6.92426 0.982723 0.0605525 -0.174895
-1.99094 9.23917 6.63423 0.985841 0.158578 -0.0544987
-1.99883 9.26829 7.1856 0.934427 0.343541 0.0939407
-2.08156 9.65613 6.19653 0.967468 0.252872 -0.00777581
-2.13909 9.84178 6.45219 0.946324 0.322443 0.0224095
-2.20036 9.91194 6.66657 0.899275 0.41888 0.125869
-2.01994 8.96982 7.77515 0.811927 0.486905 0.322021
-1.91965 9.04897 7.1525 0.949792 0.301532 0.0835062
-1.77875 8.46441 7.5998 0.972872 0.23132 -0.00334266
-1.82408 8.52356 7.83854 0.920856 0.3553 0.160579
-1.65683 7.75203 8.14482 0.984754 0.15133 -0.0857807
-1.43157 6.57626 8.57265 0.981208 0.155248 -0.114579
-1.96768 2.89531 9.09589 0.899892 -0.256678 -0.352577
-1.9659 3.27048 8.81986 0.944468 -0.207736 -0.254609
-1.46034 5.81768 10.542 0.926825 0.181401 0.328768
