-13.7498 9.5186 5.13681 0.44271 0.23644 0.86493
-14.0003 8.96849 5.42294 0.39564 0.264943 0.87936
-13.429 9.80878 4.89418 0.466633 0.223617 0.855715
-12.88 8.88555 4.83395 0.50525 0.23395 0.830656
-12.4975 9.78157 4.35198 0.513113 0.213397 0.83137
-13.0299 9.68298 4.70297 0.493984 0.226558 0.839435
-11.8366 8.59644 4.22208 0.485668 0.18689 0.853931
-12.0133 9.41706 4.14344 0.526757 0.201311 0.825834
-11.3545 8.3983 4.00007 0.494608 0.200436 0.845688
-11.2443 9.08835 3.76407 0.513296 0.195912 0.835551
-11.2696 10.5876 3.46967 0.532624 0.154478 0.832135
-11.017 11.0649 3.19361 0.761949 0.118168 0.636765
-10.9735 11.4448 3.07963 0.705797 0.133565 0.695709
-10.8484 11.8457 2.86407 0.789225 0.127236 0.600778
-10.7317 11.7082 2.69836 0.891291 0.100587 0.442134
-10.7268 11.2321 2.78787 0.863441 0.098342 0.494771
-10.8793 10.6594 3.11619 0.818764 0.105987 0.564263
-10.5825 10.5695 2.60611 0.956783 0.0711594 0.281962
-10.4919 10.0477 2.44686 0.983258 0.0722484 0.167282
-10.4701 10.7725 2.08392 0.998404 0.0143557 -0.0546218
-10.4591 9.57691 1.88168 0.986443 0.0420739 -0.15862
-10.4101 9.44577 2.39607 0.997796 0.0658174 0.00846689
-11.2941 7.01885 1.11225 0.372748 -0.0895221 -0.923604
-11.0365 7.73508 1.16552 0.386996 -0.0601964 -0.920114
-10.6016 10.1307 1.54736 0.843969 -0.0178235 -0.536096
-10.5613 10.5291 1.61603 0.935765 0.00348879 -0.352607
-10.4708 10.0845 1.98392 0.982622 0.0202108 -0.184512
-10.3476 7.04922 1.89054 0.890324 -0.0397226 -0.453591
-10.3315 6.4931 1.96953 0.849899 -0.088454 -0.519469
-10.7424 10.5046 1.35454 0.725473 -0.0493613 -0.686479
-11.1693 10.4835 1.05316 0.507287 -0.0614833 -0.859581
-10.8913 11.1181 1.17697 0.604683 -0.0611038 -0.794119
-11.1611 9.6328 1.09219 0.489329 -0.00405367 -0.87209
-11.4416 12.0586 0.818166 0.238263 -0.0747936 -0.968317
-11.3737 12.3648 0.810566 0.28706 -0.0544656 -0.956363
-10.9075 15.3943 2.2652 0.95617 0.114049 0.269689
-10.8151 14.8634 2.1511 0.960726 0.0761033 0.266861
-11.6183 11.7711 0.805309 0.111316 -0.0857443 -0.990079
-11.5504 13.0858 0.804611 0.247999 0.0865064 -0.96489
-11.562 9.97372 0.95009 0.0176293 -0.0239572 -0.999558
-11.8325 10.3751 0.944342 -0.164335 -0.0458181 -0.98534
-12.1573 10.0817 1.01037 -0.253919 -0.0445734 -0.966198
-12.3028 11.1248 0.990628 -0.375093 -0.107303 -0.920756
-12.5984 11.1694 1.12932 -0.468654 -0.0483162 -0.88206
-12.929 11.093 1.28403 -0.361652 0.0258684 -0.931954
-12.9404 11.4111 1.31 -0.360045 0.0439577 -0.931899
-13.2931 10.1512 1.36744 -0.163592 -0.0521654 -0.985148
-13.2293 10.7453 1.32767 -0.107359 -0.0337277 -0.993648
-12.9812 10.6311 1.28299 -0.289654 0.00155401 -0.95713
-13.3887 10.8538 1.32665 0.0443141 -0.0439508 -0.99805
-13.1103 11.1081 1.33012 -0.14736 0.0528996 -0.987667
-13.0911 11.6958 1.36199 -0.165944 0.0402022 -0.985315
-12.8471 13.6198 0.906566 -0.101972 -0.152143 -0.983084
-12.684 13.446 0.911861 -0.200412 -0.150143 -0.968138
-12.8707 13.2334 0.992609 -0.156943 -0.22027 -0.962731
-12.9403 11.8459 1.32101 -0.509212 -0.0300141 -0.860118
-12.8661 12.0773 1.2616 -0.523769 -0.0871324 -0.847393
-12.643 12.3761 1.06799 -0.555869 -0.0761055 -0.827779
-12.8685 12.3932 1.21758 -0.443412 -0.168753 -0.880289
-12.577 12.6887 0.990807 -0.45355 -0.111927 -0.884175
-12.8536 12.7473 1.1155 -0.301335 -0.231505 -0.924988
-12.4774 13.3071 0.880552 -0.263752 -0.0910178 -0.960287
-12.6325 13.0512 0.966171 -0.322196 -0.159157 -0.933198
-12.9658 12.8725 1.10578 -0.149904 -0.266799 -0.952023
-12.6575 14.258 0.810388 -0.100985 -0.090631 -0.990751
-12.4803 14.5262 0.768579 -0.106063 -0.0563647 -0.992761
-12.1777 14.2196 0.751762 -0.100615 -0.0710633 -0.992384
-11.8304 16.581 0.721918 0.19362 -0.0220991 -0.980828
-12.0069 16.6874 0.697272 0.031267 -0.0253247 -0.99919
-12.2539 13.398 0.819779 -0.190749 -0.038488 -0.980884
-13.3178 15.0796 3.4715 -0.210907 0.289615 0.933618
-13.2154 14.8572 3.55436 -0.112139 0.277481 0.954164
-11.7248 15.9705 0.756912 0.260442 -0.0153447 -0.965368
-14.1055 15.6654 2.61565 -0.846405 0.42417 0.32199
-14.1676 15.6475 2.39853 -0.917284 0.37549 0.132655
-11.8025 16.86 0.716017 0.228939 -0.0195172 -0.973245
-14.2042 15.3047 2.81116 -0.832577 0.402313 0.380736
-13.944 12.9177 0.963944 -0.026915 -0.0569062 -0.998017
-13.6872 13.0608 0.960419 0.125488 -0.149077 -0.980831
-13.0001 14.7792 0.806658 -0.10617 -0.0327227 -0.993809
-14.1223 12.5495 1.00221 0.0373006 -0.112786 -0.992919
-13.1113 13.1271 1.02821 0.00868237 -0.249628 -0.968303
-13.116 13.589 0.930195 -0.0057179 -0.15247 -0.988292
-14.1201 12.0323 1.06163 0.133639 -0.118872 -0.983875
-14.3482 11.9853 1.05326 -0.0141186 -0.0829284 -0.996455
-14.7945 11.4017 1.16174 -0.236995 -0.0780198 -0.968373
-14.9039 11.7151 1.18336 -0.36546 -0.00926126 -0.930781
-14.9786 11.8222 1.2243 -0.479302 0.0583873 -0.875706
-14.822 12.2794 1.16657 -0.502765 0.123153 -0.855605
-15.0574 12.2935 1.33004 -0.639719 0.218602 -0.736867
-15.2855 12.0758 1.49042 -0.731596 0.246907 -0.635456
-15.3753 11.4136 1.43413 -0.597786 0.123189 -0.792134
-15.2029 11.4812 1.32913 -0.505314 0.0569386 -0.861055
-15.2219 11.0885 1.32621 -0.377614 0.0215058 -0.925713
-15.2239 11.9329 1.39078 -0.600267 0.122027 -0.790436
-15.1255 10.6339 1.28989 -0.217288 0.0101464 -0.976055
-15.4469 10.3887 1.37323 -0.364675 0.0543313 -0.929548
-15.4197 9.87344 1.33881 -0.272949 0.0419979 -0.961111
-15.3982 9.55706 1.32003 -0.212336 0.00328071 -0.977191
-15.806 9.11536 1.43621 -0.306514 0.00109917 -0.951865
-15.327 8.92168 1.32188 -0.145646 -0.024822 -0.989025
-15.0603 9.46914 1.27119 -0.0968055 -0.0158838 -0.995177
-15.103 10.0251 1.28097 -0.132869 0.00903907 -0.991092
-14.8582 9.82416 1.26308 -0.00795478 -0.017413 -0.999817
-15.1385 8.9333 1.30246 -0.0218055 -0.0613058 -0.997881
-15.5378 8.34576 1.3664 -0.174396 0.00545026 -0.98466
-15.5201 8.98853 1.35923 -0.238086 -0.00843975 -0.971207
-16.5139 8.57417 1.86119 -0.689927 0.1184 -0.71413
-16.6186 8.67055 1.99368 -0.750216 0.136938 -0.646857
-16.5148 9.55829 2.08058 -0.825593 0.186116 -0.532689
-15.9985 8.41833 1.5024 -0.375378 0.057217 -0.925104
-15.5215 10.7593 1.43456 -0.487947 0.101306 -0.866975
-15.4253 11.0876 1.43027 -0.508333 0.113022 -0.853712
-16.5452 9.97351 2.39729 -0.902397 0.291913 -0.316965
-16.5963 10.0125 2.59747 -0.921228 0.3028 -0.244237
-16.7095 9.89173 2.99002 -0.942419 0.310064 -0.125328
-16.737 9.71105 2.79602 -0.937427 0.285493 -0.199312
-16.7425 9.46609 2.54897 -0.922854 0.253118 -0.290296
-16.9224 8.85891 2.61849 -0.922671 0.227519 -0.311308
-16.9016 9.15137 2.81143 -0.941884 0.261374 -0.211039
-17.0768 8.59337 2.9193 -0.940167 0.239015 -0.242812
-17.0813 8.34026 2.72369 -0.92551 0.214013 -0.312459
-17.1324 8.51784 3.10112 -0.953874 0.263247 -0.14431
-17.2032 8.24013 3.09403 -0.960199 0.208063 -0.186354
-17.2296 8.20005 3.21946 -0.966206 0.237136 -0.101053
-17.3376 7.7815 3.33489 -0.973414 0.220566 -0.0617788
-17.2538 8.16087 3.61949 -0.970258 0.240842 0.0244028
-17.1573 8.52238 3.62508 -0.961292 0.269629 0.0567341
-17.2044 8.2425 3.9257 -0.955361 0.259734 0.140794
-17.2572 7.82849 4.21788 -0.944573 0.246623 0.216698
-17.0782 8.52705 4.12946 -0.929052 0.288088 0.232095
-16.9351 8.81906 4.27553 -0.882784 0.318789 0.345061
-16.7988 9.23087 4.21683 -0.851074 0.353941 0.387814
-16.9147 9.04307 4.09871 -0.91049 0.322249 0.259161
-16.6937 9.33953 4.32938 -0.79524 0.359483 0.488226
-16.7302 8.80226 4.64942 -0.767946 0.347085 0.538322
-16.5361 9.23935 4.63765 -0.723736 0.369384 0.582891
-16.5985 8.59941 4.94255 -0.689129 0.351481 0.633689
-16.8674 8.46005 4.66916 -0.794024 0.324638 0.513941
-16.8262 8.15009 4.91184 -0.764276 0.324337 0.557394
-16.6484 7.78843 5.31222 -0.648679 0.341903 0.679939
-16.4389 8.4095 5.18621 -0.608604 0.357895 0.708175
-16.5509 7.44706 5.56609 -0.598099 0.346685 0.722556
-16.4524 7.86978 5.44095 -0.579585 0.353581 0.734208
-16.306 8.30368 5.34214 -0.526774 0.366341 0.767009
-16.3004 7.96186 5.50972 -0.51384 0.365623 0.776072
-16.2592 8.71296 5.17901 -0.552547 0.372175 0.745773
-16.0609 8.79784 5.26662 -0.484474 0.377968 0.788939
-16.0073 8.38392 5.49341 -0.454027 0.371827 0.809694
-15.8298 8.8172 5.38587 -0.417945 0.381455 0.824509
-15.4936 9.45662 5.25013 -0.357939 0.388071 0.849282
-15.3571 10.2323 4.95114 -0.362888 0.395855 0.843571
-15.1441 9.96183 5.15623 -0.286151 0.390387 0.875052
-15.2672 9.4732 5.32916 -0.30087 0.388675 0.870867
-15.0701 9.60586 5.33104 -0.234754 0.388951 0.890847
-14.9264 10.3582 5.04287 -0.221079 0.397188 0.890711
-14.8951 9.63213 5.35783 -0.159942 0.379024 0.91146
-15.0204 8.51716 5.79258 -0.103154 0.36598 0.924888
-15.1534 8.78743 5.66449 -0.175203 0.376957 0.909509
-15.2023 9.0469 5.54036 -0.245667 0.386856 0.888814
-15.6022 7.88589 5.90691 -0.355783 0.37068 0.857913
-15.7985 7.26068 6.09349 -0.365739 0.364331 0.856445
-16.0311 6.99928 6.09816 -0.418555 0.358567 0.834411
-15.6548 7.00804 6.25485 -0.293179 0.351491 0.889101
-15.9229 6.71097 6.26379 -0.397451 0.32241 0.859119
-15.5571 6.55891 6.4591 -0.211155 0.333227 0.918898
-15.7438 6.39211 6.45917 -0.329803 0.320976 0.887809
-15.4655 5.181 6.8302 0.00501989 0.292257 0.956327
-14.2645 5.08707 6.59559 0.294932 0.178207 0.938753
-14.2243 5.39164 6.52638 0.326701 0.181698 0.927498
-14.0173 5.61658 6.4038 0.358454 0.211689 0.909229
-14.1949 7.17463 6.04028 0.421867 0.256658 0.869571
-13.6667 7.87601 5.56548 0.460807 0.243208 0.853526
-13.804 7.43903 5.76017 0.46596 0.24327 0.850706
-13.1742 8.02995 5.25215 0.468773 0.242051 0.849508
-13.0509 7.326 5.37782 0.514325 0.227071 0.826988
-13.1085 8.91477 4.95822 0.470518 0.240643 0.848943
-13.4999 9.04892 5.13234 0.460521 0.236013 0.855698
-12.8184 8.20805 4.99376 0.535654 0.231252 0.812156
-12.5956 8.86792 4.66104 0.533939 0.221652 0.815953
-11.381 7.64631 4.21263 0.525136 0.236983 0.817356
-11.1415 7.61943 4.05776 0.595605 0.203868 0.776977
-11.0864 8.74112 3.73589 0.644775 0.173406 0.744443
-10.8268 9.86394 3.19575 0.723271 0.138703 0.676492
-10.8686 9.41815 3.35784 0.681091 0.175251 0.710917
-11.1349 10.0058 3.48313 0.575046 0.174651 0.799261
-10.7692 8.92799 3.36912 0.732923 0.163795 0.660299
-10.7289 10.3394 2.95455 0.871552 0.0966624 0.480681
-10.5881 9.70102 2.85603 0.89139 0.117731 0.437679
-10.5583 9.08313 2.99367 0.857861 0.146333 0.492606
-10.4343 9.08769 1.95487 0.992728 0.0314671 -0.11619
-10.5976 9.53132 1.5529 0.884908 0.0335012 -0.464559
-10.4459 8.58256 1.75801 0.901528 0.0604203 -0.428482
-10.6177 8.48362 1.46077 0.651784 0.0223023 -0.758077
-11.0458 8.36584 1.14537 0.528531 -0.000498481 -0.848914
-10.7187 7.61911 1.36985 0.63234 -0.00794017 -0.77465
-10.7071 8.93649 1.40066 0.610912 0.0167933 -0.791521
-10.803 9.4967 1.3231 0.580091 0.0053895 -0.814534
-11.1583 8.88175 1.09774 0.477522 0.0121653 -0.878535
-11.5015 8.2827 0.985158 0.232149 -0.00862747 -0.972642
-11.5356 8.86168 0.97866 0.194032 -0.00860701 -0.980957
-11.5527 9.46712 0.966897 0.0460502 -0.0189081 -0.99876
-12.3508 9.05638 1.07704 -0.327723 -0.0143372 -0.944665
-12.55 9.62111 1.13823 -0.322152 -0.0176412 -0.946524
-11.9543 9.7117 0.975442 -0.192783 -0.0171252 -0.981092
-12.5005 10.3353 1.11075 -0.326303 -0.0173448 -0.945106
-12.2843 10.8288 1.01403 -0.337125 -0.0635361 -0.939314
-12.537 10.6969 1.11797 -0.371171 -0.00612388 -0.928544
-13.1355 9.95654 1.3403 -0.306788 -0.0312576 -0.951265
-13.39 9.8114 1.40713 -0.159583 -0.0871389 -0.983331
-13.2625 9.26482 1.42471 -0.268865 -0.0705436 -0.960591
-13.5627 10.0064 1.40201 -0.00159136 -0.0979018 -0.995195
-14.2507 10.4103 1.27663 0.129552 -0.109899 -0.985464
-13.7958 9.95026 1.39408 0.106944 -0.116747 -0.987387
-13.9578 10.0324 1.36297 0.176931 -0.101104 -0.979017
-13.6605 10.8367 1.30496 0.129754 -0.125804 -0.983533
-13.5967 11.0725 1.29536 0.215584 -0.0271733 -0.976107
-13.308 13.0869 1.019 0.133286 -0.218742 -0.966637
-13.2613 11.2626 1.35412 0.0433169 0.0436282 -0.998108
-13.3582 11.5433 1.3534 0.218308 -0.0119476 -0.975807
-13.2079 11.7753 1.36856 0.0904619 -0.0678502 -0.993586
-13.0629 11.9436 1.35968 -0.143374 -0.135096 -0.980404
-13.0192 12.2741 1.28175 -0.168696 -0.232838 -0.957772
-13.0872 12.6079 1.19122 0.0686847 -0.282698 -0.956747
-13.1872 12.2573 1.29029 0.216829 -0.234929 -0.94752
-11.8404 17.2237 0.70565 0.191943 -0.0536905 -0.979936
-11.6798 17.2101 0.751802 0.363391 -0.0314514 -0.931105
-11.9468 17.5851 0.648033 0.11946 -0.0319305 -0.992325
-14.3083 14.9706 2.90629 -0.820407 0.357176 0.446495
-10.7701 14.1924 2.13839 0.953262 0.0496361 0.29804
-10.7398 14.334 1.96113 0.990568 0.0538631 0.125992
-14.5074 14.5386 2.8408 -0.86956 0.356845 0.341362
-12.0344 17.9379 0.65608 0.0321885 0.107214 -0.993715
-11.7095 17.7698 0.721449 0.398814 0.0678491 -0.914518
-10.7326 13.8157 2.03254 0.982938 0.0273793 0.18189
-12.4001 15.2817 0.740107 -0.082359 -0.00335671 -0.996597
-12.1765 14.7578 0.727105 -0.069536 -0.0277753 -0.997193
-12.6924 14.9497 0.771018 -0.105663 -0.0134077 -0.994312
-13.441 12.6912 1.09366 0.219724 -0.245686 -0.944119
-13.7467 12.4775 1.05863 0.237436 -0.188831 -0.952873
-13.8767 12.0124 1.11627 0.256859 -0.133652 -0.957163
-14.3746 11.6431 1.08901 0.0110091 -0.121028 -0.992588
-14.6118 11.2154 1.15363 -0.0476511 -0.138808 -0.989172
-14.9982 10.9979 1.25021 -0.215458 -0.0578483 -0.974798
-14.833 10.465 1.25226 -0.092772 -0.0328957 -0.995144
-14.5842 10.4072 1.2512 0.0291066 -0.0733241 -0.996883
-14.6785 10.9325 1.20392 -0.0803594 -0.105897 -0.991125
-14.2577 10.9343 1.19976 0.086309 -0.145544 -0.98558
-14.8649 9.31744 1.27129 0.050997 -0.0620311 -0.996771
-15.2547 8.41038 1.32989 -0.0428992 -0.029942 -0.998631
-15.9483 7.32574 1.4299 -0.239231 0.0201847 -0.970753
-15.8862 7.8861 1.42676 -0.270116 0.0464662 -0.961706
-15.6844 7.81528 1.38123 -0.179513 0.0164862 -0.983617
-16.0837 7.54575 1.47701 -0.372674 0.0532044 -0.926436
-15.6915 8.39699 1.40615 -0.2887 0.0194797 -0.957221
-16.2195 7.97093 1.58034 -0.465424 0.0835658 -0.881134
-16.4306 7.85662 1.69612 -0.558988 0.0972589 -0.823452
-16.5503 7.91842 1.79725 -0.639637 0.109977 -0.760769
-16.6266 8.06616 1.88826 -0.689895 0.128282 -0.712452
-16.7479 8.2146 2.04485 -0.759904 0.150549 -0.632361
-16.8065 7.35337 1.93157 -0.69037 0.123565 -0.712826
-16.8272 7.91556 2.05607 -0.749453 0.143388 -0.646343
-16.6781 8.75706 2.09031 -0.805315 0.156693 -0.571764
-16.8001 8.47869 2.18911 -0.821112 0.1681 -0.545452
-16.7024 9.06653 2.2247 -0.861154 0.185535 -0.473276
-16.978 8.07025 2.33911 -0.87107 0.179365 -0.457237
-16.9571 8.43548 2.46241 -0.8984 0.197534 -0.392248
-16.7914 9.03773 2.39056 -0.901369 0.212818 -0.377152
-16.6278 9.57896 2.31068 -0.892719 0.22851 -0.388376
-17.1794 8.18508 2.93664 -0.943079 0.206002 -0.261083
-17.4541 7.12701 3.29729 -0.980897 0.149388 -0.124598
-17.4572 7.23033 3.53104 -0.986444 0.160522 -0.0340707
-17.4084 7.42903 3.33259 -0.974886 0.189233 -0.117419
-17.5347 6.66578 3.48254 -0.987516 0.139178 -0.073761
-17.5407 6.69966 3.73361 -0.987716 0.156169 -0.00541105
-17.3826 7.61539 3.56032 -0.977718 0.209706 -0.00956526
-17.4412 7.29392 3.72253 -0.982428 0.181685 0.0427258
-17.3499 7.74196 3.72872 -0.971687 0.223804 0.075735
-17.3178 7.77005 3.96586 -0.962862 0.232102 0.137929
-17.4248 7.29392 3.96296 -0.97531 0.197883 0.0980481
-17.3893 7.33979 4.15777 -0.963351 0.208404 0.168889
-17.1939 7.8763 4.40819 -0.925235 0.25903 0.277206
-17.0429 8.38767 4.38324 -0.881271 0.299365 0.365707
-16.8871 8.68325 4.481 -0.828198 0.331664 0.45176
-16.999 8.08033 4.69018 -0.821767 0.305772 0.480836
-16.7786 7.42625 5.35715 -0.702418 0.326316 0.632556
-16.9144 7.66786 5.06184 -0.775006 0.310956 0.550157
-16.9227 7.28685 5.25492 -0.75455 0.314624 0.575904
-16.7314 8.08612 5.06628 -0.721663 0.32567 0.610852
-16.2822 7.58185 5.69797 -0.491434 0.360661 0.792727
-15.7145 8.25254 5.69811 -0.393962 0.375119 0.839095
-15.9676 7.63731 5.85031 -0.419527 0.367791 0.829896
-16.2816 7.03817 5.94321 -0.487325 0.356772 0.797012
-16.1997 6.82563 6.08368 -0.451107 0.314707 0.835142
-16.1717 6.22396 6.31256 -0.439511 0.286546 0.851306
-16.3919 6.1874 6.20586 -0.484264 0.28749 0.82634
-16.4753 5.69144 6.32235 -0.456152 0.312903 0.833077
-15.8667 6.19186 6.47601 -0.388959 0.273072 0.879854
-16.1621 5.58459 6.52058 -0.407771 0.303484 0.861174
-15.8535 5.49732 6.67513 -0.320364 0.284852 0.903452
-16.2131 5.28914 6.62364 -0.36853 0.400116 0.839103
-15.9449 5.20792 6.76576 -0.260262 0.393812 0.881576
-15.6588 5.32873 6.77278 -0.158559 0.291074 0.943469
-15.2417 4.927 6.89224 0.168179 0.269909 0.948085
-15.2423 5.16408 6.82806 0.102074 0.187228 0.976999
-14.9592 5.10133 6.79462 0.238517 0.158488 0.958119
-15.1773 4.30214 7.04812 0.268322 0.253036 0.929503
-14.9505 4.83723 6.84542 0.268604 0.216434 0.938621
-14.0948 4.56469 6.64319 0.329454 0.197411 0.923303
-14.3411 4.28548 6.79122 0.297214 0.224147 0.928128
-13.856 5.09866 6.45894 0.328702 0.182282 0.926676
-13.4865 5.27703 6.26558 0.434719 0.242861 0.867201
-13.3328 4.8551 6.28567 0.465177 0.199475 0.86245
-13.0663 5.63609 5.93789 0.485979 0.235209 0.841725
-13.2491 5.8785 5.96821 0.455329 0.286729 0.842889
-13.1278 6.62547 5.63959 0.493846 0.288342 0.820351
-12.6746 6.9381 5.24592 0.528152 0.254065 0.810251
-12.5031 8.04494 4.82737 0.55076 0.217586 0.805804
-12.0646 7.66677 4.61421 0.557502 0.215251 0.801784
-11.9362 6.65916 4.80122 0.515697 0.20329 0.832304
-11.7649 7.61444 4.44281 0.500507 0.234756 0.833296
-11.4869 6.4113 4.57956 0.525252 0.189112 0.829667
-11.0731 7.02976 4.1619 0.588427 0.163151 0.791919
-11.3849 5.94537 4.61103 0.579818 0.161702 0.798539
-10.8139 7.10809 3.92217 0.681486 0.156657 0.714867
-10.8472 7.87309 3.71309 0.670894 0.195915 0.715206
-10.6151 7.26997 3.62963 0.773012 0.185832 0.606563
-10.5359 6.82066 3.6406 0.913841 0.115553 0.389285
-10.4757 7.3463 3.3328 0.929029 0.124681 0.348368
-10.4039 7.34713 2.88032 0.988522 0.0916999 0.120064
-10.5299 8.57764 3.08398 0.91526 0.0872492 0.393302
-10.4871 8.03054 3.11212 0.957648 0.071745 0.278861
-10.5999 7.88175 3.39909 0.790601 0.177251 0.586116
-10.734 8.35674 3.46075 0.740121 0.156036 0.654121
-10.4298 8.74694 2.75501 0.986688 0.020414 0.161339
-10.4032 8.4432 2.37695 0.99718 -0.0329915 0.0673997
-10.3918 8.88566 2.25466 0.999698 0.0243095 0.00370031
-10.4175 8.29853 1.78088 0.914119 0.0505234 -0.402287
-10.4381 7.93896 1.68934 0.830818 0.00280519 -0.556538
-10.5343 7.38841 1.55247 0.716171 -0.0302715 -0.697268
-11.3331 7.9605 1.03239 0.186101 -0.0618814 -0.98058
-11.7281 7.10901 1.05555 0.0545203 -0.0706641 -0.996009
-11.7807 7.57081 1.02387 -0.0323935 -0.0760547 -0.996577
-11.9157 8.00577 1.00661 -0.0782633 -0.0562277 -0.995346
-10.4546 5.46285 2.04178 0.825871 -0.192187 -0.530096
-10.5065 6.44248 1.69857 0.754481 -0.141896 -0.640799
-11.7619 8.81144 0.965357 -0.0973658 -0.0150925 -0.995134
-12.1037 8.93667 1.01252 -0.228343 -0.0150663 -0.973464
-13.0421 9.5379 1.3285 -0.352109 -0.0434825 -0.934948
-13.1653 9.01571 1.41157 -0.366725 -0.0436487 -0.929305
-13.4271 9.09767 1.47863 -0.198186 -0.0804141 -0.97686
-13.5738 8.93534 1.51499 -0.0608921 -0.0878421 -0.994272
-13.7419 9.38718 1.46509 0.0829256 -0.108775 -0.990601
-14.3168 9.43435 1.3513 0.200776 -0.100639 -0.974454
-14.3607 9.84576 1.30488 0.170463 -0.0817625 -0.981966
-14.5536 9.85134 1.27832 0.0870926 -0.0464276 -0.995118
-14.1777 11.5093 1.11281 0.077408 -0.142208 -0.986805
-13.661 11.3437 1.26204 0.330318 -0.0860177 -0.939942
-13.9336 11.4428 1.16493 0.20501 -0.128845 -0.970242
-13.7009 11.9599 1.17786 0.340305 -0.141062 -0.929674
-13.3651 11.8021 1.33542 0.317729 -0.154512 -0.935508
-14.6474 9.32503 1.29573 0.157411 -0.0832849 -0.984015
-14.8672 8.84857 1.32074 0.0758908 -0.0773257 -0.994113
-14.6736 8.83163 1.34295 0.154703 -0.0964501 -0.983242
-14.7129 8.24702 1.38746 0.192469 -0.0690938 -0.978868
-15.0628 8.29367 1.33937 0.0850808 -0.0469725 -0.995266
-14.9147 7.76672 1.37391 0.150242 -0.0173397 -0.988497
-15.2777 7.83989 1.34556 0.0358592 -0.0122705 -0.999282
-15.0168 7.24085 1.35943 0.12528 -0.00384675 -0.992114
-15.4846 7.78066 1.35422 -0.0957094 0.00221108 -0.995407
-15.6305 7.1919 1.366 -0.109848 0.00726157 -0.993922
-15.7834 6.99075 1.38852 -0.183812 0.0141516 -0.98286
-16.402 6.88139 1.58021 -0.425885 0.050292 -0.903378
-16.3458 7.43059 1.58081 -0.480687 0.0825773 -0.872995
-16.1427 6.85207 1.47229 -0.311716 0.0233295 -0.949889
-16.5544 7.28326 1.70602 -0.596696 0.0954183 -0.796774
-16.8553 7.05702 1.92237 -0.712938 0.0912787 -0.695261
-17.0108 7.46356 2.19005 -0.806494 0.123983 -0.578096
-17.1169 6.40867 2.15313 -0.727307 0.0773747 -0.681937
-16.8808 6.74162 1.93034 -0.684859 0.0111971 -0.72859
-16.8782 6.2578 1.93157 -0.692661 0.0354595 -0.720391
-16.8737 5.86469 1.88596 -0.661028 0.024321 -0.749967
-17.2037 6.47303 2.27048 -0.823179 0.105795 -0.557838
-17.1617 5.94788 2.13406 -0.752066 0.0295909 -0.658424
-17.2811 6.10891 2.33221 -0.879339 0.078564 -0.469671
-16.6862 5.48351 1.73445 -0.605391 -0.0605136 -0.793625
-16.8996 5.02395 1.93711 -0.636417 -0.00972788 -0.771284
-17.0883 5.45521 2.07972 -0.692418 -0.0138704 -0.721363
-17.4068 5.96324 2.58709 -0.924918 0.0965396 -0.367705
-17.5043 5.88604 2.84128 -0.950783 0.111775 -0.288996
-17.385 6.52589 2.68525 -0.939423 0.105636 -0.326076
-17.273 6.68743 2.43891 -0.895779 0.116356 -0.429001
-17.1504 7.35389 2.39467 -0.88278 0.160324 -0.441584
-17.2446 7.32061 2.61215 -0.928334 0.152751 -0.338915
-17.3152 6.86038 2.61055 -0.933717 0.13444 -0.331811
-16.9118 8.05529 2.22049 -0.844946 0.174269 -0.505665
-17.1365 7.98682 2.65961 -0.924251 0.193737 -0.328979
-17.1565 7.68624 2.55836 -0.903225 0.179001 -0.390056
-17.2693 7.638 2.85285 -0.942267 0.185459 -0.278816
-17.3491 7.532 3.08316 -0.963323 0.184675 -0.19469
-17.4271 7.03119 3.04073 -0.966344 0.137042 -0.217713
-17.3369 7.33213 2.89245 -0.945028 0.155755 -0.287509
-17.4004 6.80324 2.84435 -0.948496 0.125443 -0.290895
-17.4972 6.30581 2.98331 -0.967396 0.110821 -0.227735
-17.62 5.91849 3.35373 -0.975454 0.133198 -0.175352
-17.579 5.83849 3.10933 -0.966678 0.120477 -0.225874
-17.7204 5.56003 3.59695 -0.967379 0.185471 -0.172567
-17.6372 5.53043 3.1688 -0.9612 0.144128 -0.235205
-17.6737 5.87287 3.7226 -0.976855 0.197853 -0.0812902
-17.5924 6.21315 3.43388 -0.985117 0.13833 -0.102026
-17.4932 6.75875 3.21454 -0.979289 0.122731 -0.161031
-17.6241 6.15413 3.7334 -0.987189 0.15393 -0.0419903
-17.5168 6.81313 3.91822 -0.97904 0.181096 0.0931926
-17.6123 6.12021 4.26684 -0.968887 0.205035 0.138628
-17.4352 6.94352 4.35956 -0.970162 0.190772 0.149637
-17.3932 6.97885 4.50802 -0.949651 0.217093 0.225904
-17.1497 7.76962 4.61405 -0.876148 0.283945 0.389538
-17.1523 7.44557 4.82462 -0.840805 0.288097 0.458309
-16.9114 6.80675 5.52905 -0.718251 0.321996 0.616794
-17.0833 6.66433 5.38547 -0.772638 0.308197 0.555018
-16.6839 7.18773 5.57484 -0.64348 0.334177 0.688665
-16.8861 6.47871 5.72159 -0.675937 0.307542 0.669721
-16.7305 6.50183 5.85537 -0.606627 0.313396 0.730607
-16.4989 7.05918 5.78831 -0.564272 0.344698 0.750187
-16.4718 6.6493 5.99329 -0.534895 0.306214 0.787477
-16.881 5.95655 5.94291 -0.645985 0.282687 0.709078
-17.0616 5.87877 5.80218 -0.682403 0.3082 0.662827
-17.2276 5.47466 5.8294 -0.711509 0.333144 0.618684
-17.0309 5.3943 6.06574 -0.622986 0.346983 0.701064
-16.7988 5.84445 6.05403 -0.586606 0.299595 0.75242
-16.6883 5.68639 6.19142 -0.53291 0.319072 0.783709
-15.912 4.70433 6.9965 -0.133697 0.378084 0.916066
-16.2121 4.64766 6.93869 -0.310119 0.404118 0.860532
-16.1187 4.17584 7.18204 -0.268809 0.322675 0.907537
-15.5741 4.43505 7.09072 0.0937502 0.31177 0.945521
-15.4193 4.30478 7.10592 0.190961 0.277555 0.94154
-15.9408 3.84921 7.30925 -0.1007 0.227367 0.968588
-15.6197 3.41903 7.39223 0.066499 0.230879 0.970707
-15.7268 3.84577 7.30163 0.10618 0.28614 0.952287
-15.5146 3.6656 7.31553 0.205175 0.261184 0.943232
-15.3531 2.99942 7.4534 0.23903 0.285201 0.928184
-15.2682 3.8454 7.20171 0.275994 0.250126 0.928043
-14.514 3.84582 6.97135 0.30544 0.252583 0.9181
-14.2492 3.38325 7.00075 0.362544 0.251959 0.897262
-13.9406 3.62481 6.80573 0.362674 0.223275 0.904774
-14.1926 2.71279 7.16571 0.403102 0.248765 0.880695
-13.812 2.62732 7.00446 0.442815 0.209224 0.87186
-13.7204 4.34708 6.54708 0.405576 0.196921 0.892597
-13.2693 4.47029 6.30642 0.535371 0.109125 0.837538
-12.9623 5.28409 5.97055 0.546833 0.17488 0.818774
-12.758 4.99086 5.88921 0.632308 0.0862215 0.769904
-12.8277 6.09377 5.6348 0.546194 0.274823 0.791293
-11.9936 5.93697 5.02277 0.56023 0.192692 0.805613
-12.0308 5.23407 5.21248 0.604215 0.180694 0.776063
-11.0583 5.57271 4.40863 0.674975 0.102298 0.730715
-10.8466 6.49368 4.0771 0.726492 0.102702 0.679457
-10.4701 6.47238 3.5816 0.95004 0.0487849 0.308293
-10.4288 8.26172 2.66065 0.993305 0.0105769 0.115037
-10.3982 7.96479 2.19032 0.998043 0.0109586 0.0615621
-10.3654 7.50022 1.84096 0.91257 0.0029222 -0.408909
-10.671 6.6328 1.49512 0.576351 -0.0943121 -0.811742
-12.6748 8.52763 1.21441 -0.388098 -0.0288625 -0.921166
-13.2736 8.513 1.46976 -0.385623 -0.0401864 -0.921781
-12.3583 8.04884 1.10736 -0.320209 -0.0357098 -0.946674
-13.7309 7.8588 1.59126 -0.0622428 -0.043798 -0.9971
-13.8085 8.56873 1.54705 0.0755436 -0.0826337 -0.993713
-13.9567 9.12788 1.46268 0.187556 -0.112266 -0.975817
-14.4812 8.86156 1.37703 0.218844 -0.109403 -0.969607
-14.382 7.86717 1.48076 0.216168 -0.0231746 -0.976081
-15.2204 6.69962 1.3498 0.0348841 0.00104946 -0.999391
-15.1849 7.31271 1.34669 0.0383603 -0.00178654 -0.999262
-12.7948 7.4822 1.29687 -0.371196 0.0073282 -0.928525
-13.3776 7.99317 1.53779 -0.368827 -0.0125709 -0.929413
-14.9471 6.48313 1.37537 0.127838 0.0173727 -0.991643
-15.2165 6.1958 1.34471 0.0586012 0.00596083 -0.998264
-15.3663 7.38789 1.34575 -0.034547 0.000101062 -0.999403
-15.6768 6.52119 1.36621 -0.11925 0.0222446 -0.992615
-15.8078 5.84146 1.3581 -0.172369 -0.00100477 -0.985032
-15.8789 6.51421 1.39895 -0.210225 0.0297583 -0.9772
-16.0814 6.48425 1.44747 -0.312665 0.0483763 -0.948631
-16.4706 6.32229 1.5706 -0.427056 0.0510134 -0.902785
-16.628 6.65357 1.69728 -0.62712 0.0521664 -0.777174
-16.6621 5.92423 1.68182 -0.655709 0.0228972 -0.754666
-17.1596 5.05891 2.15467 -0.674151 -0.0244965 -0.738187
-17.4436 4.84459 2.42441 -0.746699 0.0449254 -0.663643
-17.2925 4.36725 2.25176 -0.640781 0.0452281 -0.76639
-17.3061 5.18183 2.3031 -0.762044 0.0606669 -0.644678
-17.3634 5.49486 2.41548 -0.817473 0.0369536 -0.57478
-17.355 5.77279 2.42759 -0.878961 0.063552 -0.472641
-17.4607 5.14726 2.51633 -0.850785 0.103331 -0.515254
-17.7189 4.44918 2.90713 -0.918848 0.158832 -0.361236
-17.5479 4.84061 2.60563 -0.905675 0.106339 -0.41042
-17.6243 4.35865 2.66456 -0.862968 0.118824 -0.491088
-17.5634 4.0204 2.46316 -0.809145 0.121152 -0.574983
-17.8406 3.85771 2.90351 -0.87179 0.182481 -0.454624
-17.9118 3.95014 3.11582 -0.910194 0.240053 -0.337523
-17.6335 5.02822 2.88286 -0.941364 0.134117 -0.30959
-17.7984 4.50125 3.16633 -0.948351 0.156815 -0.275752
-17.7228 5.19427 3.28383 -0.957223 0.159605 -0.24135
-17.8873 4.57426 3.55221 -0.953922 0.172135 -0.245767
-17.5638 5.41606 2.83768 -0.948916 0.128955 -0.287973
-17.858 4.91202 3.65788 -0.960347 0.17923 -0.213566
-17.8619 5.18799 4.0346 -0.967361 0.237541 -0.08825
-17.6277 6.14967 4.02112 -0.982269 0.18578 0.0251533
-17.7152 5.7455 4.02978 -0.968704 0.248193 0.00362685
-17.5504 6.15671 4.5883 -0.957267 0.221751 0.185652
-17.4659 6.27453 4.85149 -0.943429 0.225334 0.24324
-17.5517 5.90216 4.90205 -0.931395 0.273299 0.240439
-17.4382 6.04183 5.13881 -0.88933 0.268125 0.370407
-17.6408 5.16243 5.38888 -0.873341 0.282852 0.396573
-17.502 5.70371 5.2463 -0.887592 0.306062 0.344248
-17.6755 5.33505 5.11454 -0.91559 0.302031 0.265466
-17.4918 4.94158 5.78963 -0.788911 0.304879 0.533543
-17.3728 5.83244 5.40955 -0.819912 0.308535 0.482236
-18.3036 1.64206 5.135 -0.99793 0.0276791 0.0580523
-18.2791 1.79053 5.4057 -0.993707 0.018546 0.110468
-18.2946 2.20828 5.22913 -0.996949 0.0494665 0.06038
-17.3713 6.67691 4.84341 -0.918909 0.241094 0.312218
-17.3032 6.55929 5.08304 -0.86629 0.269338 0.420712
-18.2676 3.42633 4.47909 -0.999491 0.0294261 0.0123428
-18.2639 3.05683 4.31465 -0.999977 0.00314141 0.00608866
-18.2517 3.14681 4.75672 -0.999374 0.0209572 0.0285158
-17.2909 7.21214 4.67101 -0.907765 0.252011 0.33534
-17.1352 7.10069 5.06536 -0.803656 0.2983 0.514932
-17.2316 6.41101 5.30219 -0.823486 0.286545 0.489655
-18.133 3.75302 5.34568 -0.945657 0.178468 0.271811
-18.0144 3.77535 5.68663 -0.919817 0.210903 0.330844
-18.0359 4.06563 5.39348 -0.885722 0.340842 0.315158
-17.0906 6.28994 5.58324 -0.759772 0.298148 0.577802
-17.2722 4.89697 6.09256 -0.701231 0.314438 0.639847
-16.8952 5.21399 6.26679 -0.545929 0.368456 0.752464
-16.6115 5.14923 6.49005 -0.472433 0.382865 0.793865
-17.0229 4.82317 6.3713 -0.58798 0.354247 0.727178
-16.7239 4.6889 6.65694 -0.508031 0.364743 0.7803
-16.8231 4.30478 6.75341 -0.527918 0.378451 0.760314
-16.4719 4.78698 6.75653 -0.414687 0.405356 0.814691
-16.2158 3.73619 7.25893 -0.224479 0.305038 0.925506
-15.9518 3.41372 7.38471 -0.0452038 0.279599 0.959052
-15.9749 3.07501 7.5169 0.0796404 0.396973 0.914369
-15.6641 2.98756 7.51232 0.100525 0.311107 0.945043
-15.5949 2.69412 7.61595 0.180086 0.366682 0.91275
-15.2275 2.45515 7.61431 0.252929 0.335002 0.907635
-14.7538 2.88863 7.32331 0.271062 0.304504 0.913128
-14.8765 3.26465 7.23498 0.272011 0.263857 0.925413
-14.4861 2.51318 7.35293 0.354987 0.277943 0.892599
-14.7144 2.47267 7.45218 0.292226 0.322143 0.90046
-14.5269 3.45891 7.07954 0.291782 0.263185 0.919564
-14.0212 1.91619 7.3017 0.441006 0.238441 0.865251
-13.4337 3.40561 6.63166 0.517598 0.156077 0.841269
-13.1214 4.07951 6.27101 0.54009 0.193693 0.819015
-13.0442 3.78034 6.28208 0.624256 0.153638 0.765964
-12.1924 4.60429 5.41867 0.664246 0.0565704 0.745371
-12.35 5.21028 5.49018 0.639286 0.17873 0.74791
-12.4631 5.75607 5.44858 0.618125 0.216042 0.755809
-12.5938 6.40695 5.35333 0.608654 0.239024 0.756576
-11.7254 4.14103 5.05743 0.642733 0.0539345 0.76419
-11.3338 5.51245 4.657 0.610622 0.108045 0.784517
-10.7613 6.11544 4.03917 0.737248 0.0675887 0.672233
-10.4921 5.77872 3.61012 0.922739 -0.0258735 0.384557
-10.3515 6.58551 3.10716 0.99354 0.0683905 0.0905633
-10.3439 7.03078 2.60781 0.992874 0.0906736 0.0773212
-10.3025 6.7681 2.33657 0.997245 0.0633581 0.0385838
-10.3926 7.66003 2.40378 0.993048 0.100316 0.0615759
-10.9534 6.87382 1.27219 0.457221 -0.107123 -0.882878
-11.0449 5.80553 1.37492 0.530343 -0.136745 -0.836682
-11.2697 6.14128 1.21219 0.444006 -0.130388 -0.886486
-11.4942 6.57789 1.10352 0.229069 -0.0873225 -0.969486
-11.7099 5.64593 1.14939 0.184219 -0.0990734 -0.977879
-11.869 5.8225 1.12081 0.0525186 -0.061408 -0.99673
-12.3818 6.91869 1.16184 -0.244736 -0.0293095 -0.969147
-12.1161 8.02196 1.04285 -0.257276 -0.0579193 -0.964601
-14.0555 8.067 1.54711 0.186554 -0.0483656 -0.981254
-14.0875 8.53558 1.51181 0.206411 -0.0962323 -0.973722
-14.1243 7.5097 1.54974 0.199728 0.00443137 -0.979841
-14.7069 7.14742 1.41014 0.205403 0.0019432 -0.978675
-14.4708 6.60726 1.4552 0.179328 0.0275005 -0.983405
-13.9459 6.89931 1.55446 0.126582 0.0525473 -0.990563
-15.2269 5.61893 1.34666 0.0352717 -0.0348093 -0.998771
-15.5534 5.88541 1.33815 -0.027055 0.00405784 -0.999626
-15.4878 6.56496 1.34999 -0.048134 0.00902837 -0.9988
-15.8783 5.66184 1.38907 -0.260884 -0.150756 -0.953526
-15.6022 5.5107 1.35269 -0.102701 -0.108121 -0.988819
-15.9833 5.34183 1.48513 -0.305137 -0.161321 -0.938545
-16.0193 4.70522 1.58978 -0.255008 -0.148436 -0.955478
-15.6357 5.20733 1.40589 -0.165442 -0.174911 -0.970585
-15.6832 4.74683 1.51231 -0.163376 -0.176591 -0.970631
-16.4009 4.58842 1.7096 -0.266407 -0.104939 -0.958131
-15.7093 4.33443 1.57709 -0.201961 -0.110306 -0.973162
-16.5516 4.23315 1.77997 -0.2573 -0.0500608 -0.965034
-16.627 4.60818 1.77838 -0.396578 -0.0581033 -0.91616
-16.2776 5.07822 1.62182 -0.314767 -0.11596 -0.942059
-16.5595 5.05222 1.72568 -0.378035 -0.0923978 -0.921169
-16.5614 5.52455 1.66228 -0.355475 -0.151047 -0.9224
-16.2375 5.82157 1.47737 -0.305745 -0.126184 -0.943715
-16.5099 5.81771 1.5769 -0.410934 -0.0955652 -0.906642
-16.7328 4.99576 1.82048 -0.515134 -0.0516622 -0.855551
-16.8425 4.3912 1.90239 -0.545055 -0.0156376 -0.838254
-16.9765 4.15569 1.99436 -0.565565 0.064263 -0.822196
-17.4296 4.3046 2.37718 -0.758413 0.0927944 -0.645135
-17.5594 3.61874 2.4225 -0.753295 0.0804116 -0.652748
-17.681 3.76385 2.60597 -0.824272 0.136377 -0.549524
-17.8877 3.34445 2.78182 -0.82457 0.135184 -0.549372
-17.7964 3.10812 2.62148 -0.782808 0.089605 -0.615778
-17.9386 3.02634 2.82982 -0.880986 0.057092 -0.469684
-18.1143 3.34092 3.25501 -0.949304 0.0926715 -0.300388
-17.9548 3.48444 2.95008 -0.884258 0.173548 -0.433553
-18.0142 3.24222 3.00274 -0.903306 0.0689096 -0.423426
-18.0785 3.59267 3.26775 -0.91847 0.22833 -0.32292
-17.8727 4.23325 3.21637 -0.932369 0.227004 -0.28135
-18.0196 4.53533 4.03977 -0.950947 0.236581 -0.199324
-17.8886 5.00189 3.90726 -0.963733 0.210471 -0.164074
-17.8907 5.102 4.25299 -0.960879 0.276575 0.0147832
-17.8177 5.32907 4.3442 -0.953616 0.287549 0.089057
-17.6986 5.7694 4.25693 -0.963503 0.250616 0.094093
-17.6461 5.79447 4.59099 -0.950535 0.267695 0.157554
-17.9695 4.55571 4.97374 -0.913416 0.303811 0.270869
-17.7743 4.69593 5.36441 -0.881259 0.271773 0.38668
-17.6294 4.52072 5.80769 -0.777635 0.396605 0.48784
-17.5723 4.72916 5.76015 -0.840169 0.274041 0.467992
-17.7247 4.55308 5.60223 -0.84268 0.379655 0.381774
-17.4065 4.58901 6.05712 -0.718611 0.361623 0.593993
-17.108 4.55418 6.4092 -0.660575 0.30991 0.68381
-17.0638 4.3448 6.55763 -0.579482 0.408995 0.704928
-16.6529 4.21976 6.89659 -0.444518 0.357985 0.821128
-16.4229 3.97009 7.10666 -0.339667 0.345519 0.874782
-16.3754 4.38005 6.99688 -0.425928 0.341394 0.837876
-16.3199 3.31353 7.40577 -0.105363 0.402674 0.909259
-16.2385 2.89991 7.61573 -0.042056 0.453292 0.890369
-16.1489 2.67694 7.72179 0.111479 0.401168 0.909196
-15.7989 2.32904 7.81007 0.202057 0.36957 0.906968
-16.0796 2.39088 7.83585 0.145726 0.378551 0.914037
-16.1765 2.07898 7.97383 0.0743425 0.368777 0.92654
-14.3916 1.81784 7.5238 0.434264 0.263695 0.861325
-13.4257 2.81718 6.73037 0.60143 0.133662 0.787665
-13.7112 1.83994 7.13953 0.576486 0.211565 0.789243
-13.4706 1.7447 6.98053 0.615013 0.164557 0.771155
-13.1788 2.87986 6.5377 0.594523 0.114484 0.795887
-13.0135 3.29738 6.3526 0.689949 0.0774677 0.719701
-12.2493 3.51454 5.57013 0.669959 0.078387 0.738248
-11.3156 4.79948 4.69354 0.671663 0.00445325 0.740843
-10.6426 5.25901 3.85137 0.869868 -0.0334424 0.49215
-10.3891 5.60277 3.23233 0.962748 -0.0835065 0.257183
-10.517 4.92886 3.34282 0.973824 -0.167829 0.153296
-10.5291 5.17301 3.54972 0.958623 -0.145018 0.244971
-10.3728 5.44259 2.80048 0.989488 -0.141037 0.0319817
-10.3046 6.00451 2.61671 0.996209 -0.0615784 0.0614459
-10.3033 6.26632 2.65364 0.999537 -0.0174533 0.0249198
-10.3271 6.12687 3.12265 0.985464 -0.0550947 0.1607
-10.2987 6.01857 2.21904 0.98803 -0.0709324 -0.136989
-10.33 6.03589 2.06181 0.907995 -0.107986 -0.404826
-10.8248 5.71909 1.53383 0.649949 -0.16084 -0.742763
-10.7999 5.25436 1.67284 0.630789 -0.210181 -0.746947
-11.4644 5.49609 1.22786 0.279838 -0.122505 -0.952199
-11.8221 4.76533 1.2339 0.162911 -0.152096 -0.974847
-12.2215 4.85159 1.17276 0.0131779 -0.0851819 -0.996278
-13.8663 4.99352 1.38145 -0.156331 -0.0974314 -0.982887
-13.2207 5.01492 1.27395 -0.155311 -0.0512384 -0.986536
-12.2429 5.41246 1.13915 -0.0259317 -0.0330733 -0.999116
-12.5172 5.62657 1.16367 -0.139501 0.0045817 -0.990211
-12.1445 6.77763 1.11026 -0.18233 0.00558569 -0.983221
-11.9814 6.31862 1.10325 -0.0915717 -0.0191471 -0.995614
-12.6523 5.94249 1.19239 -0.221277 0.0404758 -0.974371
-13.3372 7.31135 1.50569 -0.287691 0.0416725 -0.956816
-13.6455 7.33189 1.57885 -0.144013 0.0485638 -0.988383
-14.251 5.91336 1.4396 0.0647737 0.0560558 -0.996324
-14.8557 5.81721 1.37114 0.0936385 0.0217831 -0.995368
-14.0108 5.69761 1.42977 -0.0437154 0.0639717 -0.996994
-13.8422 6.53812 1.52222 0.0514527 0.0977649 -0.993879
-13.5475 6.47471 1.47959 -0.138446 0.130281 -0.981764
-13.7406 5.56619 1.39675 -0.101635 0.107946 -0.988948
-13.0946 5.76346 1.28102 -0.209268 0.0823281 -0.974386
-12.7093 6.84885 1.25289 -0.300067 0.0680728 -0.951486
-13.3491 5.97394 1.36512 -0.262902 0.105869 -0.958997
-14.3443 4.554 1.46847 -0.0673017 -0.110825 -0.991559
-15.1986 5.16401 1.38286 -0.0198445 -0.141868 -0.989687
-15.4251 4.5803 1.5125 -0.093245 -0.156839 -0.983213
-17.1183 2.71784 1.96015 -0.570377 0.165388 -0.80456
-17.2504 1.90857 1.85448 -0.561867 0.202741 -0.801999
-17.5131 2.58108 2.21903 -0.606249 0.182111 -0.774144
-16.7028 4.01606 1.83819 -0.367699 0.0246406 -0.929618
-16.9204 3.79946 1.92201 -0.507917 0.0409193 -0.860434
-17.0465 3.24839 1.99667 -0.572121 0.0719917 -0.817004
-17.3995 3.83066 2.26835 -0.622875 0.0584874 -0.780132
-17.4802 3.19252 2.30653 -0.632689 0.098549 -0.76811
-17.6408 3.0494 2.43331 -0.732594 0.137876 -0.666555
-17.7558 2.62879 2.49287 -0.80038 0.116369 -0.588091
-17.616 2.64085 2.32663 -0.714739 0.149813 -0.683158
-17.6919 2.19325 2.29166 -0.792483 0.147341 -0.591828
-16.8861 2.54796 1.77318 -0.493506 0.178626 -0.851202
-16.8617 3.24787 1.88066 -0.470423 0.091496 -0.877685
-16.6012 3.44937 1.77893 -0.352441 0.0914827 -0.931352
-17.8935 2.4856 2.68762 -0.865692 0.0842865 -0.49343
-17.6998 1.81294 2.21655 -0.811634 0.0982656 -0.575842
-17.8136 1.91313 2.41899 -0.873099 0.087484 -0.479629
-17.8031 1.42619 2.33515 -0.866051 0.0942137 -0.490999
-17.9317 1.38531 2.58053 -0.909444 0.0738659 -0.409212
-17.9439 1.92733 2.68658 -0.89869 0.0679516 -0.433289
-18.1042 2.82953 3.16545 -0.932981 0.044743 -0.357135
-18.184 2.9566 3.43554 -0.974632 0.0414754 -0.219938
-18.2102 3.2737 3.65357 -0.986354 0.0651076 -0.151214
-18.239 2.11781 3.65644 -0.993366 0.00682848 -0.11479
-18.2681 2.25329 4.01848 -0.998132 0.0164046 -0.0588577
-18.2431 2.51086 3.72019 -0.992498 0.0215832 -0.120342
-18.2567 3.07403 3.9867 -0.997962 0.0206438 -0.0603818
-18.2713 2.52053 4.34404 -0.999274 0.0353718 -0.0141531
-18.2357 3.77613 4.30731 -0.991097 0.129707 -0.0300581
-18.2565 3.49173 4.19321 -0.994986 0.0614284 -0.0789279
-18.2187 3.77485 4.05711 -0.982208 0.137875 -0.127508
-18.1699 3.57372 3.63564 -0.967818 0.144988 -0.205685
-18.0926 3.95489 3.65654 -0.92037 0.270943 -0.281974
-17.9862 4.10502 3.47621 -0.914772 0.273479 -0.297324
-17.9509 4.43008 3.66978 -0.924853 0.268788 -0.269073
-18.0393 4.5925 4.27562 -0.957407 0.281408 -0.0646601
-17.9638 4.8301 4.48669 -0.947258 0.306913 0.0922277
-17.7764 5.36983 4.58076 -0.942189 0.301569 0.146069
-17.8649 4.9546 4.86923 -0.932691 0.310651 0.183257
-18.0335 4.53047 4.71694 -0.93583 0.310076 0.167557
-18.1312 4.02034 5.07025 -0.940634 0.280003 0.191848
-18.1377 4.30216 4.5316 -0.963846 0.251412 0.0882758
-18.1915 3.73936 5.09445 -0.977575 0.142493 0.155058
-18.0241 3.3707 5.86926 -0.92667 0.169961 0.335254
-17.9148 3.87706 5.87316 -0.860345 0.303598 0.409432
-17.9068 4.52224 5.19508 -0.863657 0.374026 0.337936
-17.8067 3.91796 6.03889 -0.772526 0.355559 0.526101
-17.8527 3.1676 6.33525 -0.839022 0.246437 0.485089
-17.6866 3.7445 6.30723 -0.712462 0.361321 0.601535
-17.7674 2.87017 6.64512 -0.822664 0.270134 0.500251
-17.9989 2.68079 6.30984 -0.894997 0.200093 0.398677
-17.8337 2.52922 6.70183 -0.858441 0.196881 0.47362
-17.6944 3.23636 6.5477 -0.793701 0.281684 0.539159
-17.5465 3.28954 6.72231 -0.6994 0.358673 0.618218
-17.65 2.67556 6.92966 -0.76506 0.269617 0.584799
-17.4301 2.76728 7.14031 -0.666101 0.356128 0.655349
-17.1962 4.44412 6.37733 -0.658922 0.39545 0.639876
-16.7423 3.82443 7.05999 -0.38944 0.414412 0.822556
-16.6947 3.35929 7.29683 -0.273378 0.402644 0.87358
-16.8694 3.5015 7.15314 -0.441532 0.407696 0.799271
-16.5553 3.02816 7.50663 -0.2069 0.458595 0.864224
-16.5199 2.63442 7.73348 -0.159774 0.463109 0.871781
-16.4436 2.41644 7.84941 -0.0439207 0.389927 0.919798
-16.4756 2.00857 7.99563 -0.148323 0.312627 0.938224
-16.221 1.46477 8.19704 0.0587332 0.304776 0.950611
-16.2344 1.83048 8.07151 0.016123 0.340479 0.940114
-16.112 1.09313 8.29519 0.0234352 0.24141 0.97014
-15.6564 0.98505 8.29118 0.110984 0.29834 0.947985
-15.6023 1.45168 8.12381 0.170511 0.350715 0.920828
-15.5484 1.91635 7.91844 0.214847 0.376692 0.901079
-16.007 1.79737 8.06408 0.151999 0.351247 0.923862
-15.2323 1.94326 7.82771 0.23468 0.384525 0.892785
-15.02 2.12535 7.68611 0.253735 0.373414 0.89229
-15.016 1.72121 7.85513 0.343038 0.370387 0.863214
-14.8627 2.06591 7.65296 0.331493 0.335268 0.881878
-14.664 1.9022 7.62914 0.395014 0.297588 0.86914
-14.3576 1.48279 7.61387 0.470006 0.334893 0.816665
-13.8223 1.04836 7.48158 0.521576 0.344298 0.780652
-13.4369 1.0684 7.16816 0.593697 0.30725 0.743721
-13.1383 2.41878 6.56058 0.712286 0.0810465 0.697195
-12.6681 4.11188 5.89726 0.6777 0.120292 0.725432
-12.1815 3.0243 5.54989 0.652676 0.070207 0.754377
-11.0342 4.80231 4.40048 0.762854 -0.0379247 0.645458
-10.746 5.25667 4.03601 0.843525 -0.0695284 0.53257
-10.6836 4.26639 3.64736 0.957597 -0.123896 0.260111
-10.6397 4.10958 3.35497 0.990205 -0.124877 0.0624465
-10.5455 4.63487 2.91897 0.976999 -0.213204 0.00404383
-10.4167 5.18023 2.50242 0.972861 -0.2083 -0.100765
-10.8849 3.9248 2.12384 0.77891 -0.165803 -0.604821
-10.8061 4.85774 1.80967 0.709993 -0.290484 -0.641505
-10.9867 4.35395 1.87243 0.757981 -0.289984 -0.584272
-11.5317 4.05765 1.59795 0.382555 -0.159377 -0.910083
-11.2375 4.57936 1.57135 0.433128 -0.308475 -0.846903
-11.5279 4.86216 1.3121 0.353819 -0.187798 -0.916266
-13.2927 4.22473 1.40235 -0.129359 -0.17225 -0.976522
-12.7952 4.75319 1.22624 -0.134859 -0.181355 -0.974127
-14.4292 5.01401 1.40917 -0.0210709 -0.146925 -0.988923
-15.3281 4.28896 1.5353 -0.0389324 -0.134038 -0.990211
-14.9207 3.99635 1.5278 -0.0491394 -0.0234785 -0.998516
-15.6646 3.98369 1.5956 -0.195577 -0.00517861 -0.980675
-16.4242 3.45798 1.73133 -0.210691 0.1167 -0.970562
-16.3585 3.78899 1.73555 -0.221387 0.0283671 -0.974773
-15.8811 3.37683 1.61967 -0.184132 0.0510398 -0.981575
-17.5332 1.70906 2.01051 -0.617157 0.184811 -0.764828
-17.6133 1.95068 2.14186 -0.700565 0.172485 -0.692429
-16.6936 2.69481 1.70936 -0.370541 0.153213 -0.916092
-16.5389 2.68325 1.65535 -0.277174 0.153496 -0.94848
-16.3541 2.58341 1.59125 -0.188595 0.152995 -0.970064
-16.0296 3.18017 1.62007 -0.172167 0.146277 -0.974147
-16.4169 2.15035 1.52011 -0.234381 0.219202 -0.947109
-16.7355 2.18802 1.62229 -0.339362 0.204994 -0.918047
-16.954 1.54672 1.56118 -0.46228 0.212487 -0.860898
-17.6125 1.44594 2.04206 -0.783502 0.118849 -0.609917
-17.7841 1.06977 2.20917 -0.852518 0.129138 -0.506494
-17.9237 0.902508 2.43672 -0.903808 0.105811 -0.414651
-17.8466 0.416357 2.15777 -0.881769 0.0989317 -0.461189
-18.0339 1.48444 2.84705 -0.941407 0.0399089 -0.334903
-18.0341 0.921357 2.72589 -0.943727 0.0754649 -0.321999
-18.0418 1.95605 2.91171 -0.923497 0.039002 -0.381619
-18.1382 2.16879 3.17533 -0.953221 0.0137981 -0.301958
-18.0675 2.40606 3.0108 -0.914153 0.0540457 -0.40175
-18.1955 2.43462 3.39555 -0.971193 0.0295699 -0.236454
-18.2117 1.9887 3.45648 -0.98149 -0.00603078 -0.19142
-18.2579 1.88539 3.84448 -0.995262 0.00334078 -0.0971677
-18.2792 1.24599 4.03718 -0.995081 0.0195436 -0.0971135
-18.3016 1.41703 4.36595 -0.997824 0.0215078 -0.0623321
-18.2272 1.27675 3.59118 -0.98795 0.0108834 -0.154389
-18.1122 3.31956 5.60928 -0.959997 0.121802 0.252132
-18.1648 3.11818 5.48238 -0.973162 0.111667 0.20121
-18.2413 3.51615 4.88571 -0.992496 0.0550432 0.109188
-18.2365 3.77366 4.57542 -0.987097 0.149851 0.0564297
-18.1512 4.12314 4.02213 -0.94659 0.258892 -0.192205
-18.1606 4.20935 4.35392 -0.975588 0.214841 -0.0455234
-18.1444 3.84312 3.74347 -0.956201 0.192375 -0.220617
-17.962 3.12558 6.14187 -0.896667 0.203331 0.393248
-18.0903 2.90652 5.92151 -0.940911 0.17494 0.289969
-18.1763 2.40729 5.96067 -0.955534 0.104078 0.275905
-17.9828 2.38513 6.45561 -0.905562 0.131949 0.40317
-17.7349 2.4055 6.90922 -0.823968 0.15919 0.543815
-17.5284 2.17341 7.26679 -0.772655 0.142571 0.61861
-17.3803 1.83247 7.47652 -0.737673 0.086713 0.669566
-17.297 2.04574 7.53615 -0.680288 0.114917 0.72388
-17.5638 1.66102 7.27524 -0.799938 0.0714851 0.595809
-17.5001 1.43984 7.38937 -0.781682 0.0752614 0.619119
-17.4271 0.62248 7.51046 -0.784497 -0.0599105 0.617232
-17.4699 1.09268 7.46659 -0.782246 0.0239466 0.62251
-17.6199 0.658684 7.23826 -0.825153 -0.0411373 0.56341
-17.2761 0.442064 7.65467 -0.716015 -0.100341 0.690836
-17.2559 0.699473 7.70439 -0.719482 -0.0340739 0.693674
-17.159 0.888623 7.80652 -0.677243 0.0374882 0.734804
-17.306 1.36593 7.61915 -0.717226 0.0774305 0.692526
-17.1701 1.51932 7.72598 -0.657829 0.102111 0.746214
-17.2154 2.29205 7.56698 -0.628772 0.190335 0.753936
-17.2991 2.45099 7.43972 -0.666715 0.308414 0.678507
-17.0195 2.48329 7.63153 -0.455799 0.372084 0.80858
-16.9318 3.1105 7.32371 -0.401575 0.437039 0.80482
-17.1675 2.92825 7.27908 -0.551348 0.406233 0.728691
-17.326 3.28242 6.9514 -0.618953 0.389067 0.682294
-17.3207 3.72039 6.70026 -0.625399 0.39894 0.670614
-16.9964 3.88831 6.87674 -0.535518 0.412141 0.73713
-17.1577 3.35917 7.04948 -0.516322 0.408265 0.752816
-16.7106 2.86519 7.55265 -0.308938 0.461142 0.831809
-16.7135 2.41182 7.79546 -0.268528 0.400306 0.876155
-16.7617 2.19849 7.86259 -0.335374 0.281308 0.899105
-16.5847 1.74828 8.03456 -0.337179 0.223588 0.914505
-16.8497 2.03907 7.86259 -0.464465 0.19746 0.863297
-16.5043 1.14744 8.21322 -0.370656 0.155296 0.915695
-16.329 1.30047 8.23407 -0.203593 0.238689 0.949514
-16.2313 0.849554 8.34219 -0.104831 0.178568 0.978327
-16.8841 0.811842 8.0273 -0.572969 0.026722 0.819142
-16.6061 0.690353 8.20766 -0.49786 0.00764351 0.867224
-16.7008 1.18258 8.11266 -0.503094 0.114003 0.85668
-16.7449 0.0966581 8.07674 -0.588361 -0.0959234 0.802888
-16.5368 0.167758 8.2224 -0.532543 -0.061891 0.844137
-17.0106 0.571637 7.92026 -0.616646 -0.0622039 0.784779
-16.3019 0.256497 8.35975 -0.423037 -0.0281411 0.905675
-16.2699 0.571194 8.36889 -0.341606 0.0757621 0.936785
-16.1476 0.309802 8.41778 -0.249762 0.0397109 0.967493
-16.0299 0.429718 8.42655 -0.0547618 0.163552 0.985014
-15.7228 0.753521 8.36046 0.0295027 0.219212 0.975231
-15.5945 0.343819 8.44751 0.0572781 0.190505 0.980014
-15.4121 0.603032 8.3716 0.141537 0.238543 0.960762
-14.9128 0.383871 8.33728 0.199817 0.244508 0.948836
-15.2339 0.996761 8.22576 0.205519 0.31097 0.927933
-14.5218 0.380471 8.23129 0.350191 0.299701 0.887438
-14.8204 0.932674 8.13246 0.328536 0.358449 0.87383
-15.0942 1.2987 8.06983 0.270899 0.379573 0.884612
-14.6907 1.616 7.75312 0.423048 0.340923 0.839525
-14.5198 0.914711 7.99693 0.446466 0.383782 0.808319
-14.6924 1.25305 7.92141 0.417569 0.388865 0.821231
-14.1916 0.435511 8.03177 0.495197 0.338633 0.800068
-14.0821 1.12333 7.61998 0.525384 0.367937 0.767199
-13.1694 1.57888 6.74578 0.658229 0.235254 0.715116
-12.4723 2.39827 5.88578 0.700141 0.0849227 0.708937
-12.7268 3.18413 6.07306 0.711355 0.0571458 0.700506
-11.6382 3.05733 5.09746 0.633398 0.117039 0.764924
-11.6669 3.40978 5.07599 0.675996 0.0859244 0.731879
-11.1777 3.30648 4.6471 0.622277 0.248172 0.742417
-11.3033 2.58422 5.01515 0.596552 0.224677 0.770484
-10.9585 2.9304 4.59444 0.85653 0.207394 0.472593
-10.9101 3.65597 4.17571 0.858203 0.0700622 0.508506
-10.9272 3.2529 4.29611 0.897567 0.258303 0.357285
-10.7627 3.19534 3.7992 0.9588 0.187179 0.213696
-10.6883 3.17968 3.1682 0.99816 -0.0443756 0.0413103
-10.6781 3.58743 2.78086 0.993371 -0.0771607 -0.0852059
