-18.6753 14.5231 -1.10172 -0.585484 0.130109 -0.800175
-18.3123 14.6135 -1.33003 -0.487126 0.123829 -0.864508
-18.1859 14.1031 -1.44629 -0.422871 0.09991 -0.900665
-18.033 15.6111 -1.24688 -0.499735 0.219702 -0.837852
-18.2048 14.9834 -1.31479 -0.440013 0.193732 -0.876844
-18.4614 14.883 -1.18287 -0.558013 0.220299 -0.800057
-17.7413 15.0414 -1.51352 -0.313015 0.180982 -0.932345
-17.961 14.6153 -1.4963 -0.38818 0.126495 -0.912861
-17.8137 15.5651 -1.36553 -0.392621 0.19493 -0.898805
-17.6075 14.673 -1.61363 -0.266973 0.126476 -0.955369
-18.0563 12.9975 -1.70486 -0.301397 0.177755 -0.936783
-18.0746 13.4746 -1.6004 -0.367709 0.178102 -0.912727
-17.7324 13.6408 -1.68713 -0.253795 0.144854 -0.95635
-18.3439 13.1326 -1.56119 -0.415798 0.200596 -0.887059
-18.3809 12.5264 -1.67443 -0.381237 0.148079 -0.912541
-18.4308 13.5563 -1.41735 -0.462033 0.183556 -0.86766
-17.7972 14.3625 -1.58237 -0.337675 0.0965177 -0.936301
-17.7408 13.9577 -1.64462 -0.304446 0.117952 -0.945198
-18.1897 13.8205 -1.48555 -0.400412 0.141166 -0.905396
-18.6301 13.7813 -1.24548 -0.57617 0.173167 -0.798775
-18.7889 14.1276 -1.06057 -0.662463 0.118602 -0.739646
-18.9738 13.5028 -1.03976 -0.689231 0.21847 -0.69082
-18.847 13.7986 -1.07157 -0.690476 0.162626 -0.704837
-19.0791 12.8354 -1.16277 -0.696441 0.232945 -0.678754
-19.1552 12.4398 -1.20128 -0.727427 0.166481 -0.665683
-19.2899 12.2149 -1.08135 -0.847415 0.172489 -0.502131
-19.2781 12.0009 -1.15191 -0.759755 0.137565 -0.63549
-18.9617 12.0154 -1.42714 -0.545196 0.101001 -0.832202
-18.7095 12.3594 -1.54172 -0.459674 0.115774 -0.880509
-18.8164 12.449 -1.46284 -0.518768 0.179735 -0.835808
-18.5502 11.9312 -1.6577 -0.40059 0.0874464 -0.912075
-18.8028 11.7752 -1.54714 -0.473803 0.0995954 -0.874981
-18.7595 11.4605 -1.61253 -0.434683 0.141623 -0.889378
-18.9967 11.1084 -1.55688 -0.481197 0.196506 -0.854303
-18.7284 11.1224 -1.69329 -0.42825 0.18903 -0.883668
-18.4496 11.3123 -1.77839 -0.391563 0.189812 -0.900361
-18.1672 11.1344 -1.93763 -0.385084 0.219351 -0.896435
-18.156 10.6724 -2.04595 -0.397072 0.185144 -0.898919
-13.6775 0.334614 -3.73313 0.799264 -0.53097 -0.281511
-14.0797 -0.221165 -3.88148 0.77439 -0.548711 -0.315018
-14.3096 -0.789162 -2.89107 0.729314 -0.671277 -0.132243
-14.6175 -1.01594 -3.48777 0.743868 -0.636027 -0.205254
-14.2991 -0.531773 -3.84214 0.746118 -0.609292 -0.268462
-14.5714 -0.519513 -4.38253 0.686511 -0.56405 -0.458858
-14.9816 -0.842795 -4.52448 0.602151 -0.539373 -0.588635
-14.6161 -0.1505 -4.73322 0.606103 -0.478209 -0.635574
-14.3571 0.149932 -4.65968 0.696443 -0.482929 -0.530797
-16.2285 10.9653 -2.35179 -0.0871965 0.306182 -0.947971
-15.834 11.3304 -2.29939 -0.404697 0.332166 -0.85199
-15.4533 12.3152 -2.05223 -0.639205 0.458025 -0.617762
-15.3066 12.5943 -1.91713 -0.702702 0.653003 -0.282483
-14.8052 13.2175 -2.05991 -0.82798 0.541292 0.146464
-14.9903 12.8641 -2.23993 -0.888549 0.384392 -0.250448
-14.7838 13.1683 -2.60174 -0.946376 0.281274 -0.158928
-14.5534 14.3311 -2.43824 -0.953501 0.280949 -0.1091
-14.6167 14.0049 -2.59171 -0.978496 0.188817 -0.0830234
-14.7085 13.5506 -2.36721 -0.969541 0.244806 -0.00772449
-14.5745 14.1065 -2.23649 -0.951182 0.192736 0.241053
-14.4135 14.7497 -2.24361 -0.941108 0.27738 0.19333
-14.3759 14.8563 -2.51179 -0.94381 0.328928 -0.0320889
-14.4675 14.4682 -2.69115 -0.871249 0.296234 -0.391371
-14.2819 14.4379 -2.96412 -0.756338 0.303472 -0.579532
-14.6325 13.737 -2.76719 -0.925961 0.199317 -0.320731
-14.611 13.5669 -2.87549 -0.885264 0.16039 -0.436559
-14.2656 14.7911 -2.83121 -0.681586 0.241082 -0.690883
-13.8971 14.9245 -3.11572 -0.593512 0.18737 -0.782711
-13.8858 15.7275 -2.95536 -0.67886 0.198704 -0.706871
-13.6767 15.5055 -3.14963 -0.486846 0.153172 -0.859953
-13.871 14.3177 -3.26546 -0.423205 0.198411 -0.884042
-13.6911 14.0309 -3.3945 -0.284224 0.0826445 -0.955189
-13.1816 13.963 -3.49048 -0.0871923 0.0883848 -0.992263
-13.0394 15.2222 -3.3834 0.0245012 0.11961 -0.992519
-12.5619 15.0039 -3.32949 0.396817 0.088802 -0.913592
-12.5839 16.2934 -3.22889 0.201249 0.0903792 -0.975362
-12.8025 15.7515 -3.31374 0.0379226 0.0977631 -0.994487
-12.5311 15.8595 -3.24598 0.380232 0.0762372 -0.921744
-12.1997 16.1545 -3.00476 0.843554 0.124824 -0.522337
-12.0302 14.7886 -2.95571 0.871026 0.0424995 -0.489396
-12.0579 16.0966 -2.65053 0.971726 0.130617 -0.196694
-11.9686 15.3261 -2.66446 0.997241 0.0616058 0.0414248
-12.0028 15.6245 -2.57098 0.983225 0.0893029 0.15904
-11.9617 14.7835 -2.43934 0.988186 0.0351031 0.149183
-12.0254 15.0412 -2.24199 0.924369 0.0754213 0.373969
-12.2036 15.2585 -1.93456 0.865127 0.119277 0.487164
-12.468 15.3553 -1.6779 0.479373 0.189477 0.856913
-12.4541 15.9244 -1.80302 0.663773 0.134804 0.735685
-12.6069 16.2783 -1.77136 0.46943 0.158289 0.868665
-12.7812 15.5589 -1.57376 0.385764 0.187098 0.903427
-12.8377 15.0713 -1.44398 0.326582 0.201569 0.923425
-13.4286 15.1125 -1.45682 -0.271136 0.346576 0.897981
-13.6594 14.1306 -1.16946 -0.188282 0.2566 0.948001
-13.2668 14.7704 -1.3128 -0.114351 0.314458 0.942359
-13.5774 14.5713 -1.28607 -0.36154 0.333461 0.870685
-13.5605 13.3232 -1.02887 -0.294392 0.0685758 0.953221
-13.7936 12.3461 -1.0641 -0.137032 -0.0269536 0.9902
-14.3756 11.2779 -1.17546 -0.215432 0.0375711 0.975796
-14.3791 12.6548 -1.31007 -0.382562 0.138883 0.913432
-14.7447 12.618 -1.46493 -0.438097 0.215173 0.872795
-14.7143 12.8386 -1.5355 -0.477541 0.363436 0.799918
-14.9176 12.759 -1.63209 -0.583878 0.453226 0.673553
-15.0164 12.8072 -1.79228 -0.599768 0.573174 0.558346
-15.2827 12.6134 -1.79009 -0.119565 0.945517 0.302822
-15.5934 12.5332 -1.5893 0.264119 0.92201 -0.283086
-15.8085 12.7309 -1.38353 0.64848 0.748675 -0.137694
-15.5638 12.3462 -1.31244 0.671581 0.548477 0.498148
-15.685 12.5185 -1.30934 0.74971 0.613111 0.249059
-15.9558 12.9317 -1.38473 0.817387 0.42536 -0.38852
-16.202 12.7539 -1.69328 0.399108 0.437939 -0.805557
-15.9326 12.7034 -1.61575 0.237671 0.589342 -0.772132
-15.8415 12.4394 -1.81436 0.0275684 0.439795 -0.897675
-16.7814 12.4697 -1.89216 0.0511134 0.253346 -0.966024
-16.5875 12.8206 -1.77448 0.130905 0.227462 -0.964948
-17.1196 12.8257 -1.8396 0.0401882 0.174156 -0.983898
-16.8202 13.1392 -1.76164 0.14065 0.13338 -0.981034
-16.1179 13.1637 -1.40785 0.768928 0.373781 -0.518688
-15.9362 13.1252 -0.994454 0.981564 0.187359 0.0378042
-16.2668 14.4835 -1.12589 0.754266 0.0932167 -0.649918
-16.1522 14.2379 -1.01739 0.902658 0.118775 -0.413643
-16.0642 13.9002 -0.888999 0.986508 0.107571 -0.123408
-15.9998 13.4151 -0.950343 0.985531 0.14785 -0.0828751
-16.2461 16.6793 -0.064862 0.671666 -0.0360276 0.739978
-16.563 16.363 0.188962 0.662252 -0.058619 0.746985
-16.264 15.8414 -0.114809 0.663494 -0.0513102 0.74642
-16.0651 14.1622 -0.61068 0.993548 0.0455979 0.103842
-16.349 14.1462 -0.0810838 0.666242 -0.0048774 0.745719
-16.3127 14.7516 -0.113947 0.698777 -0.0194907 0.715074
-16.6663 13.7546 0.161638 0.611753 -0.0111233 0.790971
-16.8366 14.0836 0.317295 0.70909 -0.0322065 0.704382
-16.9278 14.1205 0.422432 0.780045 -0.0333809 0.624833
-16.7417 14.5275 0.245577 0.681765 -0.0285532 0.731014
-16.8463 14.8449 0.361805 0.720902 -0.0376299 0.692015
-16.9314 14.5554 0.440353 0.771819 -0.0232915 0.635415
-16.974 14.9335 0.515071 0.761776 -0.0375527 0.646751
-16.8454 15.2209 0.386039 0.730499 -0.0451414 0.68142
-16.8703 16.0919 0.453426 0.665527 0.000193553 0.746374
-17.2134 15.6012 0.77457 0.612371 0.0695108 0.787509
-17.0351 16.129 0.586631 0.58623 0.0817755 0.806007
-17.1683 16.2138 0.663036 0.47164 0.154562 0.86814
-17.1606 16.5336 0.594521 0.371926 0.201121 0.906213
-17.2631 16.8431 0.539705 0.0705902 0.314754 0.946545
-17.3018 17.0141 0.481186 -0.0561912 0.37502 0.925312
-17.3465 17.1958 0.401454 -0.191831 0.404131 0.894359
-17.1871 17.451 0.325244 -0.143186 0.363019 0.920714
-17.0996 17.0747 0.444826 0.141134 0.277032 0.950439
-17.0067 17.617 0.273418 0.0489351 0.31039 0.949349
-17.071 17.8124 0.192162 -0.147722 0.377412 0.914187
-17.4222 17.4784 0.241808 -0.342119 0.425124 0.837988
-17.2778 17.7654 0.15907 -0.344349 0.419178 0.840067
-17.4283 17.8625 0.0233073 -0.540688 0.477421 0.692622
-17.6911 17.5242 0.014067 -0.689537 0.506268 0.517911
-17.0459 18.1596 0.0548947 -0.285047 0.466435 0.837369
-17.1971 18.3041 -0.124982 -0.483193 0.569648 0.66485
-17.4971 17.9812 -0.148258 -0.739676 0.538146 0.404077
-17.6675 17.7039 -0.137136 -0.77128 0.504449 0.388147
-17.5755 17.9178 -0.325652 -0.845895 0.52466 0.0958778
-17.8665 17.4237 -0.200554 -0.84269 0.520505 0.137651
-17.634 17.8205 -0.484933 -0.860708 0.502237 -0.0833024
-17.4603 18.1129 -0.537174 -0.853372 0.510385 -0.106128
-17.3446 18.2933 -0.380371 -0.824689 0.556606 0.100389
-17.4755 17.9653 -0.792734 -0.811053 0.423036 -0.404022
-17.3351 18.2378 -0.788001 -0.799339 0.482144 -0.358601
-17.6916 17.6773 -0.608567 -0.848955 0.478827 -0.223608
-18.1331 16.9859 -0.234699 -0.850312 0.51685 0.0991698
-17.9631 17.2631 -0.444854 -0.85963 0.499987 -0.105114
-18.1394 16.9742 -0.355582 -0.864263 0.499767 -0.0572916
-18.3263 16.6557 -0.193936 -0.859722 0.508623 0.0467005
-18.4958 16.3608 -0.289458 -0.875244 0.46348 -0.138323
-18.2468 16.7483 -0.0521287 -0.81658 0.512017 0.266526
-17.9551 17.199 -0.028308 -0.790252 0.519464 0.325052
-18.1686 16.7316 0.136701 -0.729343 0.490149 0.477297
-17.9162 17.1298 0.108958 -0.661963 0.495249 0.562613
-18.1232 16.5775 0.327088 -0.634753 0.472219 0.611636
-17.7722 17.4817 -0.685691 -0.825125 0.439474 -0.355009
-18.6733 15.8619 -0.440902 -0.898524 0.339195 -0.27857
-18.7121 15.6232 -0.564326 -0.874729 0.312282 -0.370579
-18.7876 15.5925 -0.374724 -0.919161 0.312334 -0.239981
-18.4991 16.2644 -0.495008 -0.86744 0.400389 -0.295357
-18.9982 14.8166 -0.535077 -0.926385 0.257897 -0.274408
-19.0655 14.5301 -0.497011 -0.969785 0.146377 -0.195168
-19.0059 14.4994 -0.689461 -0.896021 0.158045 -0.414931
-18.9928 14.2625 -0.778916 -0.876116 0.133197 -0.463335
-19.0208 13.8891 -0.843978 -0.83941 0.176803 -0.513938
-18.8727 14.8427 -0.805662 -0.818281 0.254907 -0.515208
-18.8532 14.4899 -0.944153 -0.765687 0.149636 -0.625566
-18.6954 14.8353 -1.01518 -0.672355 0.243696 -0.698964
-18.8997 14.2586 -0.922876 -0.771403 0.126028 -0.623742
-18.4876 15.3202 -1.00984 -0.647394 0.272631 -0.711725
-17.741 16.1556 -1.27473 -0.433812 0.191971 -0.880315
-17.6008 16.0527 -1.35731 -0.343793 0.168738 -0.923761
-17.4612 16.6528 -1.3011 -0.370327 0.173242 -0.912604
-17.2975 16.3789 -1.40205 -0.266972 0.142253 -0.953148
-17.179 16.2029 -1.45067 -0.152219 0.10042 -0.983232
-17.2823 15.8472 -1.4803 -0.158673 0.130326 -0.978692
-17.5821 15.4849 -1.46379 -0.274045 0.167133 -0.947083
-17.4166 14.7571 -1.62987 -0.10188 0.158476 -0.982093
-17.3492 15.3722 -1.53732 -0.144046 0.1541 -0.977499
-17.4487 14.3549 -1.68243 -0.160733 0.104525 -0.981448
-17.2268 14.4866 -1.67046 0.0695829 0.144262 -0.98709
-17.44 12.8295 -1.83054 -0.069551 0.1576 -0.985051
-17.7657 12.9133 -1.7826 -0.16326 0.162378 -0.973129
-17.4536 13.7094 -1.74044 -0.143202 0.102466 -0.984375
-17.9204 12.3927 -1.86303 -0.262611 0.154109 -0.952516
-18.0035 12.0738 -1.86655 -0.327646 0.0783062 -0.94155
-18.0825 11.6669 -1.86699 -0.353854 0.0887372 -0.931082
-18.2514 12.2365 -1.75808 -0.36831 0.0832314 -0.92597
-17.6636 11.5708 -2.03759 -0.28049 0.128086 -0.951273
-17.3507 12.0123 -2.02426 -0.174663 0.19918 -0.964272
-17.9828 11.4724 -1.93416 -0.359541 0.179542 -0.915694
-18.4666 11.5297 -1.73367 -0.375646 0.120957 -0.918836
-15.7091 -0.968167 -4.78766 0.073526 -0.656119 -0.751067
-15.4165 -0.662091 -4.92621 0.261251 -0.582413 -0.769768
-15.7956 -1.53594 -3.99228 0.0337829 -0.936164 -0.349938
-16.1866 -1.46933 -3.96663 -0.471113 -0.869545 -0.148134
-16.0761 -1.54383 -3.75577 -0.343502 -0.932887 -0.108293
-16.6786 11.0967 -2.31547 -0.00429805 0.294626 -0.955603
-16.2587 10.5226 -2.48677 -0.151136 0.264832 -0.952377
-15.5949 12.0663 -2.1073 -0.653444 0.373753 -0.65827
-15.5978 12.4034 -1.88786 -0.394075 0.679989 -0.61832
-15.9547 11.8211 -2.09017 -0.111468 0.386013 -0.915734
-16.2568 12.1324 -1.9731 0.0184789 0.324045 -0.945861
-16.9532 11.9292 -2.06632 0.00980421 0.286307 -0.958088
-17.5643 12.1857 -1.96557 -0.140865 0.190954 -0.971439
-17.2229 13.3746 -1.78589 -0.0017625 0.0900607 -0.995935
-16.9752 13.9332 -1.73239 0.182131 0.12396 -0.975429
-16.9995 13.4107 -1.77192 0.128818 0.0753655 -0.9888
-17.1709 13.8465 -1.75392 -0.0137317 0.0962959 -0.995258
-16.7957 13.9555 -1.67566 0.39193 0.163395 -0.905369
-16.1943 13.3811 -1.35483 0.814409 0.216236 -0.538498
-16.0945 14.8508 -0.793782 0.966487 0.00983433 -0.256526
-16.083 14.3223 -0.801863 0.973651 0.0439864 -0.223761
-16.1556 14.6264 -0.952219 0.878609 0.0374468 -0.476072
-16.0725 14.6154 -0.645307 1 -0.000711363 0.000243151
-16.0974 14.5934 -0.455187 0.957329 -0.0167163 0.288517
-16.1691 14.8832 -0.271798 0.841978 -0.0338629 0.538448
-16.2098 15.2333 -0.198094 0.782792 -0.0436082 0.620753
-16.6302 14.6218 0.151545 0.640756 -0.0185603 0.76752
-16.6843 15.0467 0.212911 0.6707 -0.0309306 0.741084
-16.5279 15.8668 0.111118 0.672492 -0.0560986 0.737976
-16.6394 16.5093 0.262599 0.637833 -0.00950548 0.770116
-16.7637 15.9334 0.348208 0.720803 -0.0362944 0.692189
-16.5947 15.5306 0.151097 0.675403 -0.0365206 0.736544
-16.871 16.4163 0.445789 0.577622 0.0506257 0.814733
-17.0019 16.6748 0.499809 0.472558 0.129388 0.87175
-16.7924 16.8617 0.359278 0.5246 0.0860131 0.846993
-16.8997 16.9576 0.401201 0.404883 0.163415 0.899647
-17.1156 16.8562 0.50684 0.275942 0.237243 0.931435
-16.8549 17.1799 0.345194 0.385115 0.162584 0.908434
-16.9266 17.406 0.317886 0.233616 0.234852 0.94354
-16.7704 17.5072 0.245337 0.360638 0.176778 0.9158
-16.5928 17.2857 0.189699 0.547198 0.0827385 0.832904
-16.6629 16.7188 0.279241 0.591812 0.0423212 0.804965
-16.4252 16.9378 0.0894916 0.633541 0.0269286 0.77324
-16.3553 17.3531 0.00743237 0.64039 0.0421384 0.766893
-16.181 17.6519 -0.161564 0.694394 0.0350142 0.718742
-16.3033 17.8542 -0.0640797 0.607978 0.0745298 0.790448
-16.6172 17.5787 0.162702 0.447294 0.133718 0.884334
-16.5486 18.0532 0.055985 0.355476 0.20864 0.911101
-16.7079 18.0991 0.0932838 0.189879 0.295719 0.936214
-16.8659 17.9604 0.149945 0.00991851 0.336044 0.941794
-16.8174 18.5277 -0.124944 -0.154422 0.630247 0.760883
-16.7962 18.3231 0.0100388 -0.00508402 0.445528 0.895254
-17.0152 18.5966 -0.296295 -0.434238 0.721145 0.539803
-17.2488 18.3932 -0.292695 -0.700747 0.627559 0.339299
-17.3586 17.028 -1.26924 -0.410711 0.182163 -0.893383
-17.6526 16.9836 -1.1223 -0.541637 0.248542 -0.803029
-17.324 17.4256 -1.19944 -0.481414 0.203018 -0.852657
-17.2052 18.4991 -0.572469 -0.751905 0.652663 -0.0931159
-18.0217 16.904 -0.816479 -0.773588 0.40313 -0.488926
-18.1981 16.8437 -0.463736 -0.84534 0.467993 -0.257649
-18.1717 16.7916 -0.646598 -0.837048 0.440951 -0.323904
-18.5101 16.0932 -0.62794 -0.823084 0.320149 -0.469082
-18.8979 15.0741 -0.580392 -0.888308 0.3014 -0.346507
-18.79 15.2786 -0.658521 -0.82232 0.306634 -0.479338
-18.6103 15.715 -0.692369 -0.793705 0.297241 -0.530735
-18.6514 15.3056 -0.847871 -0.738326 0.294138 -0.606925
-18.4272 15.8982 -0.840457 -0.711377 0.276769 -0.64602
-18.2789 15.6287 -1.07899 -0.600777 0.247239 -0.760223
-18.1664 16.4154 -0.90661 -0.669045 0.271251 -0.691955
-17.9756 16.3687 -1.08059 -0.573452 0.236082 -0.784486
-18.0096 16.645 -0.9632 -0.631098 0.280148 -0.723348
-17.8496 16.8902 -1.00345 -0.647419 0.320479 -0.691478
-17.528 17.427 -1.05144 -0.619465 0.303755 -0.723875
-17.1688 17.7384 -1.22623 -0.536536 0.21739 -0.815396
-17.5183 17.6486 -0.952834 -0.709569 0.34266 -0.615708
-17.1502 18.1822 -1.09199 -0.677993 0.320297 -0.661616
-16.8557 18.2907 -1.27213 -0.500128 0.274515 -0.821288
-17.0283 18.4159 -1.09425 -0.675953 0.430382 -0.598213
-16.8714 18.5458 -1.13539 -0.413841 0.586421 -0.696309
-16.6494 18.355 -1.33449 -0.164976 0.3936 -0.904357
-16.786 18.1943 -1.32837 -0.295465 0.182413 -0.937777
-16.8169 17.9858 -1.35353 -0.353834 0.136313 -0.925322
-17.001 17.4229 -1.35293 -0.356666 0.129157 -0.925261
-17.6841 16.7296 -1.17557 -0.473294 0.210227 -0.855451
-17.8712 16.2898 -1.17226 -0.50273 0.210279 -0.838478
-17.0985 16.9503 -1.3805 -0.293629 0.128059 -0.947303
-16.9407 16.0323 -1.4882 0.0265644 0.0628981 -0.997666
-16.9505 16.3853 -1.46837 -0.042808 0.0689593 -0.996701
-17.145 15.6583 -1.51478 -0.0342665 0.109667 -0.993378
-16.9728 15.5726 -1.51944 0.136873 0.0695433 -0.988144
-17.193 15.0632 -1.58316 0.0534862 0.12011 -0.991319
-16.9181 15.2562 -1.53483 0.268052 0.0521758 -0.96199
-17.0247 14.5364 -1.62423 0.271798 0.182831 -0.944828
-16.589 13.8054 -1.58911 0.5455 0.182315 -0.818041
-16.4661 13.3197 -1.6015 0.53951 0.175251 -0.823539
-16.2763 13.7933 -1.32558 0.682432 0.196537 -0.704031
-16.4537 14.43 -1.33465 0.663619 0.183373 -0.725248
-16.5122 14.636 -1.34972 0.583843 0.0769448 -0.808212
-16.4033 14.9411 -1.23885 0.696963 -0.00598269 -0.717083
-16.2589 15.0579 -1.08823 0.804004 -0.00582162 -0.594595
-16.0678 15.1674 -0.662633 0.992414 -0.0244056 -0.120497
-16.0442 15.5488 -0.665998 0.984783 -0.0863756 -0.150804
-16.0722 15.2214 -0.503027 0.987637 -0.0521297 0.147839
-16.0823 15.6736 -0.342735 0.911332 -0.0712916 0.405451
-16.0076 15.9803 -0.50594 0.980931 -0.0813485 0.176515
-16.0429 16.2483 -0.333617 0.898494 -0.0521729 0.435875
-15.9583 16.5606 -0.529172 0.964883 -0.0642162 0.25471
-16.1121 15.212 -0.357286 0.915409 -0.0441416 0.400097
-16.0737 16.8125 -1.07594 0.762336 -0.0740885 -0.642927
-16.2137 16.3692 -1.18384 0.700393 -0.0797004 -0.709293
-16.2037 16.928 -1.22561 0.651428 -0.0577896 -0.756506
-16.1512 15.7692 -0.228693 0.760589 -0.0508111 0.647242
-16.3122 15.3284 -0.0929632 0.658393 -0.0278374 0.752159
-16.0457 16.7041 -0.305476 0.861938 -0.0245098 0.506421
-16.13 16.3503 -0.204605 0.752965 -0.0407018 0.6568
-16.1533 16.9834 -0.157616 0.731997 0.0145155 0.681153
-16.0582 17.5647 -0.293896 0.821165 0.0288351 0.569962
-16.1461 17.9884 -0.213799 0.736687 0.0826853 0.671159
-16.2759 18.2355 -0.143201 0.566847 0.252937 0.784033
-16.4216 18.0414 -0.00666365 0.498972 0.158641 0.851974
-16.5317 18.3951 -0.0654527 0.291624 0.469082 0.833617
-16.759 18.696 -0.29308 -0.200177 0.807179 0.55533
-16.9171 18.7505 -0.506742 -0.530812 0.843548 0.0816415
-17.11 18.5858 -0.427689 -0.65764 0.727547 0.195411
-16.9477 18.6558 -0.905966 -0.560107 0.78226 -0.272671
-16.7745 18.8201 -0.700943 -0.36682 0.912095 -0.183101
-17.0901 18.5373 -0.871794 -0.720706 0.588444 -0.366492
-17.8184 17.1747 -0.884999 -0.697579 0.36143 -0.61867
-18.2932 16.4111 -0.763144 -0.78205 0.345415 -0.518735
-17.7408 17.4339 -0.796561 -0.764039 0.42819 -0.482594
-16.7067 18.6875 -1.05701 -0.178107 0.823597 -0.538485
-16.6176 18.8514 -0.729784 0.064002 0.984636 -0.162465
-16.4226 18.7392 -0.973378 0.274129 0.811875 -0.515472
-16.535 18.4954 -1.2615 0.0987347 0.633699 -0.767253
-16.5496 18.1432 -1.39726 -0.0181169 0.155368 -0.987691
-16.6442 17.8223 -1.4158 -0.0988793 0.0544384 -0.993609
-16.8219 17.3686 -1.40863 -0.161222 0.0669724 -0.984643
-16.9364 16.7882 -1.43423 -0.128525 0.0828891 -0.988236
-16.6893 16.8469 -1.43283 0.120505 0.0354098 -0.992081
-16.767 16.3431 -1.46367 0.165455 0.0190251 -0.986034
-16.7032 15.8661 -1.44832 0.278252 0.00120464 -0.960507
-16.5473 16.2227 -1.40083 0.383248 -0.0256831 -0.923289
-16.7399 15.5563 -1.46243 0.34969 0.0108115 -0.936803
-16.8334 14.9303 -1.51449 0.439258 0.039555 -0.89749
-17.0234 14.811 -1.58744 0.237726 0.100122 -0.966158
-16.8024 14.5215 -1.54192 0.428179 0.15826 -0.889728
-16.6123 14.4324 -1.45452 0.527634 0.192109 -0.827464
-16.523 15.0271 -1.34266 0.543036 -0.00631334 -0.839686
-16.4226 15.5793 -1.289 0.648468 -0.0472308 -0.759775
-16.12 15.587 -0.919481 0.888662 -0.0842003 -0.450767
-16.2528 15.5183 -1.10901 0.765433 -0.0660508 -0.640117
-16.1211 15.1894 -0.872883 0.919662 -0.0199943 -0.392202
-16.4072 17.3085 -1.36092 0.425202 -0.0511529 -0.903652
-16.3367 16.947 -1.31548 0.457113 -0.0210467 -0.88916
-16.6174 17.2292 -1.42255 0.142115 0.00556989 -0.989835
-15.905 17.116 -0.811975 0.958379 -0.0465376 -0.28168
-15.923 16.7665 -0.715518 0.991425 -0.0959961 -0.088663
-15.9961 16.6935 -0.942377 0.906898 -0.0795468 -0.413773
-15.9779 16.3774 -0.825631 0.956948 -0.104415 -0.27083
-16.0438 16.0034 -0.872867 0.936421 -0.119844 -0.329776
-15.9849 16.1367 -0.651899 0.993181 -0.102955 -0.0547025
-15.9118 16.999 -0.583244 0.96585 -0.0323375 0.257075
-16.0047 17.0085 -0.35819 0.879772 -0.00897733 0.475311
-15.9991 18.027 -0.42194 0.883452 0.0863772 0.460491
-15.8973 17.631 -0.659904 0.984246 0.0193614 0.175739
-15.9297 18.0002 -0.590632 0.96312 0.136565 0.231838
-15.9427 17.4434 -0.504874 0.916912 0.0216963 0.3985
-16.1428 18.2532 -0.274622 0.750167 0.317511 0.580032
-16.3369 18.5085 -0.247507 0.513327 0.551863 0.657224
-16.5803 18.709 -0.321483 0.209524 0.718236 0.663503
-16.717 18.7961 -0.46471 -0.0180694 0.94712 0.32037
-16.4666 18.7955 -0.586633 0.272718 0.940476 0.202805
-16.393 18.7272 -0.455748 0.466064 0.796958 0.384243
-16.2959 18.7395 -0.768604 0.509605 0.859289 -0.0438681
-16.1181 18.5773 -0.684389 0.788404 0.605686 0.107531
-16.402 18.3105 -1.31865 0.36803 0.326908 -0.870451
-16.3895 17.8916 -1.3884 0.292913 0.0311598 -0.955631
-16.5309 17.5311 -1.40736 0.192899 -0.0157974 -0.981091
-16.1338 16.0223 -1.03909 0.806218 -0.105794 -0.582083
-16.287 15.8567 -1.19294 0.699439 -0.0834799 -0.7098
-16.613 16.4852 -1.42426 0.274983 0.0132818 -0.961357
-16.4553 15.9084 -1.33696 0.530404 -0.0501896 -0.846258
-16.3547 16.4158 -1.30461 0.549666 -0.0494607 -0.833919
-16.0602 16.4019 -1.00821 0.835028 -0.0970636 -0.541577
-15.9373 17.7297 -0.94772 0.913465 0.0288847 -0.40589
-15.9605 17.4703 -0.991134 0.888465 -0.0382091 -0.457352
-15.8961 17.8819 -0.794644 0.994614 0.0594283 -0.0849249
-15.9494 18.1265 -0.907661 0.917032 0.228025 -0.327194
-15.8907 17.091 -0.73338 0.999436 -0.0306007 0.0138591
-15.961 18.2466 -0.71424 0.946832 0.321592 0.009336
-16.0373 18.3349 -0.507529 0.880125 0.333761 0.337614
-16.169 18.559 -0.493458 0.700233 0.551751 0.453039
-16.2847 18.0979 -1.31312 0.585192 0.178574 -0.790988
-16.1419 17.2886 -1.19937 0.622943 -0.0500439 -0.780665
-16.2342 17.834 -1.30366 0.605671 -0.00258441 -0.795711
-16.0398 17.6415 -1.11772 0.76145 0.0124858 -0.648103
-16.0179 17.2859 -1.0672 0.83238 -0.0671353 -0.550123
-16.464 16.6843 -1.37231 0.360849 -0.00408586 -0.932615
-16.0549 18.1259 -1.09055 0.776527 0.161222 -0.609108
-16.1873 18.3247 -1.14889 0.656728 0.328786 -0.678682
-16.1314 18.5581 -0.930908 0.776613 0.512685 -0.366097
-16.2705 18.4976 -1.12236 0.476147 0.557689 -0.679902
-16.5821 15.4587 -1.38838 0.462082 -0.0119014 -0.886757
-16.7631 13.948 0.243419 0.646637 -0.0259623 0.762356
-17.7123 11.0008 -2.17588 -0.36539 0.207492 -0.907434
-17.4673 10.8463 -2.28867 -0.330581 0.137997 -0.933634
-15.8989 -1.64121 -3.26983 -0.247265 -0.965713 -0.0791071
-15.8985 -1.63496 -2.8163 -0.238706 -0.97079 0.0242099
-17.17 11.4445 -2.17565 -0.0567311 0.268927 -0.961488
-17.2128 10.6573 -2.37801 -0.232971 0.116376 -0.965495
-16.1332 -1.56677 -3.24843 -0.458351 -0.887571 -0.0461829
-16.2738 -1.49003 -3.05003 -0.51379 -0.857908 0.00361015
-18.1351 10.4032 -2.10215 -0.384869 0.163272 -0.908415
-18.6734 13.2228 -1.35549 -0.507179 0.209701 -0.83594
-18.5214 12.8226 -1.54428 -0.46601 0.199872 -0.861908
-18.8785 13.0819 -1.25211 -0.611542 0.229123 -0.757311
-18.9649 12.6763 -1.31241 -0.586315 0.203307 -0.784156
-19.0392 12.2317 -1.34834 -0.61059 0.132907 -0.780715
-14.5669 13.2905 -1.655 -0.709138 0.412723 0.57165
-14.4317 13.8565 -1.75451 -0.841983 0.277881 0.462436
-14.7652 13.1523 -1.81114 -0.836963 0.435841 0.330963
-14.8495 13.133 -2.24515 -0.918499 0.39534 -0.0080931
-14.5389 13.8379 -1.96826 -0.880041 0.198656 0.431351
-14.346 14.7957 -2.08042 -0.794498 0.368955 0.482334
-14.4127 14.4274 -1.96839 -0.795535 0.268452 0.543192
-14.1899 15.3411 -2.40087 -0.917295 0.392893 0.0648537
-14.1624 15.2373 -2.73834 -0.922359 0.328017 -0.204106
-14.038 15.7179 -2.68048 -0.891303 0.270707 -0.363725
-13.3866 16.7081 -3.11594 -0.391373 0.117058 -0.912757
-13.9471 15.8967 -2.80742 -0.850372 0.248314 -0.463905
-13.5703 16.1246 -3.10198 -0.497994 0.150764 -0.853974
-12.9501 15.9602 -3.29724 -0.136327 0.121123 -0.983232
-12.8055 16.7016 -3.21605 0.0583767 0.12577 -0.99034
-13.2622 16.2669 -3.20719 -0.202882 0.105177 -0.973538
-12.4955 16.9627 -3.03755 0.470216 0.232247 -0.851445
-12.824 17.2369 -3.14458 0.278486 0.212568 -0.936622
-12.6804 17.3522 -3.02843 0.510421 0.337736 -0.790826
-12.2072 16.4833 -2.9254 0.8978 0.24397 -0.366652
-12.0978 16.3897 -2.52939 0.984158 0.177137 -0.00740167
-12.0552 15.7065 -2.34546 0.928031 0.100251 0.35876
-12.156 15.9884 -2.17658 0.849316 0.117635 0.51461
-12.2796 16.1881 -2.02506 0.794822 0.117051 0.595446
-12.3265 15.6103 -1.86592 0.770341 0.145587 0.620789
-12.5294 17.0366 -1.98407 0.618212 0.336676 0.710255
-12.7742 17.235 -1.92245 0.368399 0.33173 0.868469
-12.3949 16.7273 -2.02209 0.60965 0.171913 0.773804
-12.8911 15.7602 -1.58785 0.272211 0.181279 0.945007
-12.9865 16.2434 -1.67448 0.126968 0.194806 0.972589
-13.3468 15.6826 -1.61336 -0.431664 0.289157 0.854433
-13.6535 15.1469 -1.57075 -0.398209 0.322252 0.858827
-13.5274 13.8401 -1.07589 -0.274217 0.130548 0.952766
-14.0059 14.0439 -1.32813 -0.553218 0.287656 0.781796
-14.0963 14.4214 -1.561 -0.70732 0.267206 0.654445
-14.3236 13.6661 -1.5345 -0.702202 0.196889 0.684212
-14.1859 15.2056 -2.1963 -0.860936 0.386355 0.330937
-13.8865 15.647 -2.01929 -0.717288 0.320828 0.61852
-13.5173 16.0535 -1.81293 -0.611491 0.279502 0.740241
-13.7308 16.0169 -1.99845 -0.738458 0.284288 0.61144
-13.9996 15.8478 -2.40461 -0.915183 0.299066 0.270184
-13.8703 16.2251 -2.34839 -0.896619 0.301067 0.324704
-13.8869 16.2949 -2.52917 -0.9559 0.292539 0.0260172
-14.0402 15.4669 -2.14699 -0.873411 0.305676 0.379097
-13.846 16.2509 -2.78728 -0.899165 0.262291 -0.350294
-13.7116 16.7049 -2.80777 -0.858581 0.22228 -0.461985
-13.6892 16.9314 -2.69173 -0.954487 0.255898 -0.1532
-13.5717 17.1216 -2.88208 -0.847785 0.221219 -0.481998
-13.5389 17.5077 -2.62898 -0.912082 0.405004 -0.0638612
-13.5254 17.4462 -2.79093 -0.883562 0.30818 -0.352622
-13.2283 17.8839 -2.53923 -0.439683 0.862099 -0.251922
-12.9779 17.9144 -2.6267 0.116538 0.942666 -0.312728
-13.2166 17.7664 -2.84115 -0.30781 0.800067 -0.514924
-13.3886 17.6569 -2.83256 -0.658073 0.627027 -0.416865
-13.4033 17.4515 -2.97798 -0.64787 0.29863 -0.700774
-13.5133 16.9929 -2.9883 -0.669136 0.170963 -0.723207
-13.8117 16.5268 -2.63812 -0.952674 0.270543 -0.138634
-13.7169 16.2786 -2.96163 -0.713398 0.193567 -0.673495
-13.2788 17.2936 -3.09149 -0.406464 0.161038 -0.899363
-13.2162 16.9234 -3.15071 -0.261217 0.103737 -0.95969
-13.4213 15.1045 -3.31966 -0.307121 0.133233 -0.942298
-13.2725 15.7712 -3.26766 -0.247984 0.112628 -0.962195
-12.981 16.9029 -3.18963 -0.128997 0.112429 -0.985251
-12.6294 17.5123 -2.89841 0.564313 0.477553 -0.673419
-12.9097 17.7401 -2.88103 0.329785 0.682851 -0.651886
-12.6959 17.7492 -2.72455 0.508734 0.751717 -0.419656
-12.917 17.4761 -3.08616 0.238254 0.473853 -0.847761
-12.3156 17.0467 -2.79919 0.768628 0.320854 -0.553411
-12.4378 17.4143 -2.65688 0.795796 0.458631 -0.395432
-12.5684 17.6512 -2.62916 0.79013 0.601627 -0.117218
-12.5791 17.6675 -2.46191 0.800956 0.579062 0.152171
-12.3404 17.2178 -2.31809 0.836603 0.484123 0.25636
-12.5852 17.3596 -2.10831 0.689455 0.482393 0.540323
-12.1954 16.8694 -2.4413 0.959029 0.283192 0.00812343
-12.7734 17.6344 -2.12918 0.477351 0.539273 0.693773
-12.9127 17.55 -2.01963 0.199602 0.447749 0.871596
-12.8866 16.6034 -1.75285 -0.0145967 0.18872 0.981922
-13.2598 16.118 -1.69964 -0.389574 0.257449 0.88428
-13.7967 15.2375 -1.70192 -0.60685 0.317643 0.728585
-13.7358 16.5122 -2.25128 -0.842832 0.288213 0.454497
-13.7492 16.7003 -2.47943 -0.944355 0.273235 0.183128
-13.5985 17.3092 -2.5243 -0.963829 0.261048 0.0537267
-13.6626 16.7785 -2.29019 -0.870877 0.240609 0.42858
-13.5135 17.2134 -2.21604 -0.777147 0.228778 0.586262
-13.54 17.4201 -2.38943 -0.915332 0.268231 0.300365
-13.457 17.5981 -2.35082 -0.833781 0.423901 0.35372
-13.319 17.7525 -2.29541 -0.590546 0.608349 0.530252
-13.3867 17.7513 -2.52768 -0.756031 0.654506 0.00621799
-13.1661 17.9139 -2.41173 -0.243805 0.907967 0.340814
-13.1273 17.7232 -2.15213 -0.298013 0.650537 0.698563
-13.0676 17.7133 -2.94711 0.000158963 0.710937 -0.703255
-13.1898 17.5443 -3.04725 -0.26322 0.460622 -0.847669
-13.0391 17.2878 -3.1539 -0.0976885 0.181082 -0.978604
-13.5221 16.6467 -3.05371 -0.562246 0.139511 -0.815118
-12.7297 17.8172 -2.48611 0.53643 0.843742 0.018491
-12.9377 17.8925 -2.41542 0.252084 0.920105 0.299766
-12.7149 17.7421 -2.28942 0.611061 0.6605 0.436284
-12.9674 17.7689 -2.17627 0.127725 0.757862 0.63979
-12.9527 16.9765 -1.82746 0.112439 0.27688 0.954303
-13.0818 17.5485 -2.01459 -0.128637 0.410745 0.90263
-13.0656 17.1514 -1.88614 -0.254554 0.265277 0.929963
-13.2452 16.601 -1.82117 -0.38319 0.214134 0.898505
-13.4422 16.547 -1.92728 -0.560058 0.233555 0.79485
-13.6293 16.6162 -2.14639 -0.753975 0.2728 0.59758
-13.5066 16.8401 -2.08586 -0.713432 0.232253 0.661115
-13.3696 17.4529 -2.13369 -0.685459 0.299562 0.663633
-13.2445 17.4834 -2.0528 -0.439653 0.36192 0.822022
-13.2808 17.0413 -1.94022 -0.539104 0.223654 0.812001
-13.8139 14.7218 -1.47189 -0.477169 0.364846 0.799498
-14.0881 13.5793 -1.28922 -0.483144 0.140281 0.864229
-14.1057 14.8549 -1.80454 -0.712935 0.381075 0.588647
-12.1622 16.5115 -2.31346 0.893806 0.11959 0.432214
-14.1711 13.194 -1.27318 -0.461624 0.0994664 0.881482
-13.97 12.5247 -1.12269 -0.371342 0.0347757 0.927845
-16.17 10.2714 -2.57681 -0.266113 0.180626 -0.946868
-16.8206 -1.10631 -3.71531 -0.557276 -0.812873 -0.169353
-17.0474 -0.906504 -3.74406 -0.682255 -0.626497 -0.376868
-16.756 -1.04917 -4.01935 -0.687039 -0.658105 -0.308017
-17.3362 -0.522552 -3.65384 -0.871419 -0.444737 -0.206974
-17.4001 -0.378227 -3.81347 -0.728522 -0.684084 0.0358455
-17.177 -0.567922 -4.22832 -0.644633 -0.757285 -0.104732
-17.6891 -0.0740237 -3.62988 -0.615344 -0.786396 0.0541516
-17.8769 -0.0412972 -3.95964 -0.369927 -0.905162 0.20937
-17.6548 -0.164253 -4.02957 -0.623088 -0.760995 0.180687
-18.0071 -0.0370532 -3.64036 0.217255 -0.959461 -0.179539
-17.0744 13.4743 0.570231 0.803241 -0.0629383 0.592319
-14.549 10.6967 -1.22434 -0.0546692 -0.0986566 0.993619
-17.4788 -0.396916 -3.25896 -0.618295 -0.726983 -0.298676
-17.5033 -0.290642 -3.48473 -0.861353 -0.488136 -0.140693
-17.8243 -0.0214437 -3.66863 0.0408481 -0.837535 -0.544855
-19.2799 13.3407 -0.118657 -0.978322 0.189434 0.0836663
-17.0387 11.1721 0.18711 0.621843 -0.125729 0.772983
-13.2703 9.53143 -1.31326 0.250512 0.0566983 0.966452
-19.2972 -0.52996 -3.99781 0.245276 -0.816817 -0.522159
-19.2382 -0.932832 -3.19784 0.615612 -0.679638 -0.398891
-19.3585 -0.88792 -3.4557 0.493678 -0.763045 -0.417186
-19.5505 -1.07945 -3.28813 0.369396 -0.793904 -0.482972
-19.0465 -0.825692 -3.1245 0.485639 -0.725688 -0.487373
-19.2111 -1.12737 -2.88047 0.455583 -0.705983 -0.542247
-19.9135 -1.36005 -3.02964 0.285662 -0.848788 -0.444923
-19.7148 10.7181 -0.979317 -0.893939 0.206011 -0.398036
-19.7538 10.7191 -0.85768 -0.953034 0.202081 -0.225589
-19.3683 12.5987 0.129811 -0.945187 0.169349 0.279182
-20.4128 -1.40061 -3.15368 0.0473459 -0.870017 -0.490743
-20.1244 -1.274 -3.30423 0.184564 -0.867731 -0.461496
-20.2685 -1.59479 -2.79139 0.20555 -0.805602 -0.555657
-19.7659 -1.40661 -2.84154 0.29243 -0.777504 -0.556751
-20.0719 -1.81967 -2.4661 0.15943 -0.789055 -0.593275
-12.1682 11.2901 -2.25219 0.991209 -0.119996 0.0557283
-19.3922 -1.96662 -1.87421 0.364042 -0.84848 -0.384129
-19.1225 -1.85235 -1.82425 0.440122 -0.830037 -0.342536
-19.7337 -1.93617 -2.17289 0.288513 -0.826156 -0.48397
-20.6963 -2.37133 -1.02796 -0.298594 -0.954281 0.0137379
-21.0062 -2.20307 -0.789235 -0.612866 -0.788797 0.0468517
-21.1466 -2.0888 -1.0697 -0.656658 -0.751697 -0.0612595
-21.1348 -1.98023 -1.74489 -0.652267 -0.73234 -0.195515
-21.2432 -1.97858 -1.27358 -0.781217 -0.62109 -0.0628276
-21.6596 -1.24185 -1.40378 -0.925577 -0.378185 0.0168493
-21.458 -1.65637 -1.39106 -0.86075 -0.507171 -0.0434256
-21.5424 -1.48198 -1.18123 -0.906235 -0.418106 0.0626482
-21.7959 -0.89006 -1.87632 -0.951385 -0.307562 -0.016527
-21.8563 -0.609421 -2.29419 -0.965467 -0.239708 -0.102047
-22.0423 0.702367 -1.74252 -0.993679 -0.0925007 0.0636048
-22.0298 0.495359 -2.13756 -0.991342 -0.131153 -0.00636472
-21.967 0.0411743 -1.97359 -0.989242 -0.145112 -0.0185198
-21.9891 0.994464 -1.17503 -0.983274 -0.0699899 0.16815
-22.0325 1.13467 -1.4114 -0.99204 -0.0472526 0.116723
-22.0416 1.37385 -1.43833 -0.994853 0.00325528 0.101273
-22.0037 1.61329 -1.13178 -0.98621 0.0198388 0.164306
-22.0098 1.83064 -1.30721 -0.99489 0.0586034 0.0822141
-21.9263 0.839848 -0.912794 -0.970257 -0.0901974 0.224647
-21.8151 0.482826 -0.599074 -0.9598 -0.0968923 0.263432
-21.7657 0.793052 -0.312088 -0.955073 -0.0919776 0.281736
-21.6288 -0.123428 -0.244451 -0.912317 -0.120767 0.391271
-21.609 -0.535618 -0.325241 -0.93779 -0.141749 0.316951
-21.5193 -0.453211 -0.0820343 -0.902888 -0.133958 0.408471
-21.4473 -1.63935 -0.920982 -0.888453 -0.423544 0.17681
-21.4546 -1.4232 -0.592403 -0.899387 -0.321515 0.296194
-21.5161 -1.43851 -0.841779 -0.925243 -0.318556 0.20603
-21.2101 -1.9696 -0.728127 -0.759903 -0.635159 0.138275
-20.839 -2.31373 -0.874221 -0.358434 -0.924047 0.1329
-19.6207 10.6166 -1.18938 -0.810286 0.183743 -0.556485
-20.4647 -2.3955 -0.690432 -0.112484 -0.992987 0.0363744
-20.2973 -2.40669 -0.811661 0.0969702 -0.991235 0.0897185
-19.7503 -2.26003 -1.32656 0.374453 -0.925193 -0.0616641
-19.4005 -2.11975 -1.22311 0.4308 -0.893007 -0.130196
-19.8725 -2.32113 -0.883065 0.28939 -0.95574 0.0530572
-20.3298 -2.28575 -0.102296 -0.0443445 -0.973669 0.223613
-20.6702 -2.28849 -0.381306 -0.226716 -0.947265 0.22647
-19.2836 11.9439 0.547765 -0.833995 0.146723 0.531907
-21.0015 -2.08302 -0.390757 -0.663688 -0.633408 0.397886
-21.1678 -1.88246 -0.416557 -0.782331 -0.483332 0.392871
-20.7672 -1.94947 0.112036 -0.573278 -0.530084 0.624791
-21.0144 -1.78278 -0.0381959 -0.721749 -0.479175 0.49947
-21.14 -1.15738 0.231608 -0.751265 -0.311015 0.582126
-21.1906 -1.51808 -0.081678 -0.812054 -0.360763 0.458713
-21.2943 -0.921489 0.135433 -0.823853 -0.265929 0.500548
-20.6228 0.167362 1.13345 -0.620957 -0.156906 0.76798
-20.8782 -0.233765 0.829924 -0.663885 -0.188392 0.723716
-15.7874 10.1316 -0.542864 0.678197 0.0330357 0.734137
-15.407 9.57033 -0.85675 0.56289 0.0211788 0.826261
-14.9981 10.0259 -1.11669 0.462006 0.0539157 0.885236
-20.8847 1.07043 1.09274 -0.669778 -0.113115 0.733895
-21.1248 1.0646 0.843465 -0.744684 -0.110226 0.658252
-20.8781 0.440399 0.971399 -0.674616 -0.147165 0.723351
-19.7339 3.09724 2.14414 -0.372035 0.0742634 0.925243
-19.639 0.989735 1.91543 -0.506682 -0.0993941 0.856384
-19.9611 1.167 1.74549 -0.519845 -0.122648 0.84541
-19.8407 0.492879 1.73647 -0.522338 -0.0890123 0.84808
-19.6647 1.48933 1.98006 -0.508239 -0.161687 0.845902
-19.1621 0.0496424 2.07229 -0.314906 -0.138502 0.938963
-18.4604 -0.75379 2.07661 -0.0536537 -0.292468 0.954769
-18.159 -0.660331 2.08314 0.150642 -0.345209 0.926357
-18.5744 0.0790284 2.25432 -0.171573 -0.126977 0.976954
-12.447 10.2263 -3.37175 0.800827 0.0610562 -0.595775
-18.3007 -0.111211 2.23336 0.00420857 -0.172731 0.98496
-17.3918 -0.617821 1.80665 0.469109 -0.330901 0.818805
-16.5099 0.275517 1.64656 0.512727 -0.298245 0.805084
-15.9731 0.530796 1.38225 0.551468 -0.262233 0.791907
-14.8967 -0.967907 -0.658103 0.600053 -0.679772 0.421718
-15.0106 -1.42051 -3.22302 0.605693 -0.78329 -0.139972
-14.6929 -1.00479 -3.84247 0.661333 -0.712209 -0.235367
-14.853 -0.944171 -4.2693 0.678509 -0.629794 -0.378135
-15.2542 -1.13948 -4.44601 0.459723 -0.722567 -0.516287
-15.6759 -1.3157 -4.42373 0.120281 -0.737206 -0.664876
-15.4238 -1.31951 -4.33749 0.233223 -0.812523 -0.534241
-15.4836 -1.49463 -3.98664 0.332144 -0.89832 -0.287579
-15.6816 -1.62394 -3.534 0.134621 -0.96955 -0.204572
-16.6854 -1.23551 -3.34171 -0.534333 -0.84458 0.0342371
-17.2601 -0.754675 -3.49797 -0.875552 -0.474593 -0.0903891
-17.2912 -0.705813 -3.17081 -0.849022 -0.523641 0.0704464
-17.4845 -0.411316 -3.10666 -0.730282 -0.681703 -0.0443805
-17.8248 -0.301377 -3.27163 0.293366 -0.695763 -0.65563
-18.2057 -0.0924472 -3.76212 0.427768 -0.791891 -0.435802
-19.0504 -0.646141 -3.42528 0.394967 -0.849434 -0.349948
-18.6546 -0.431761 -3.54662 0.206862 -0.81638 -0.539195
-19.6515 11.0537 0.0279034 -0.959296 0.169978 0.225518
-19.4548 -1.263 -2.85858 0.388475 -0.79361 -0.468263
-19.6432 -1.54549 -2.60389 0.235099 -0.710685 -0.663065
-19.4489 -1.76057 -2.26998 0.255921 -0.734944 -0.627982
-19.042 -1.44564 -2.49928 0.239084 -0.715433 -0.656501
-18.9068 -1.50987 -2.30584 0.431276 -0.776016 -0.460217
-18.6698 -1.4564 -2.15105 0.490702 -0.800565 -0.34396
-19.6854 -2.17448 -1.64985 0.399576 -0.883811 -0.243346
-19.3051 -2.08999 -0.561248 0.49765 -0.866119 0.0467119
-18.621 -1.63144 -1.44671 0.542711 -0.836179 -0.0791795
-18.6419 -1.67695 -1.03082 0.581564 -0.809399 0.0815908
-19.0433 -1.91461 -0.442149 0.577384 -0.81231 0.0823411
-19.3338 -2.05799 0.110329 0.321441 -0.946845 -0.0126681
-19.2112 -2.01581 0.687552 0.232563 -0.970241 0.0674359
-19.5496 -2.13502 0.13388 0.381388 -0.921041 0.0789104
-18.9703 -1.83147 -0.143387 0.573869 -0.81716 0.0540787
-20.1302 -2.32089 -0.283923 0.116578 -0.982313 0.14653
-19.5974 -2.20956 -0.434043 0.322584 -0.942858 0.0834187
-20.496 -2.23377 -0.0474469 -0.26143 -0.910997 0.318965
-12.7838 9.4152 -1.48272 0.539784 0.0316294 0.841209
-20.621 -2.14266 0.0196448 -0.384968 -0.71944 0.578105
-20.8398 -1.48677 0.391133 -0.608048 -0.394866 0.688737
-20.3651 -1.21306 0.936147 -0.610962 -0.296908 0.733874
-19.9315 -0.99591 1.37512 -0.571691 -0.236855 0.785538
-20.3322 -0.723211 1.14541 -0.614399 -0.231417 0.754294
-19.521 0.067662 1.88828 -0.53125 -0.150257 0.833784
-19.208 -0.50037 1.94089 -0.453131 -0.18903 0.871171
-19.0629 -0.322935 2.05138 -0.428155 -0.161134 0.889224
-18.7796 -0.65066 2.05986 -0.215188 -0.251688 0.943582
-18.5916 -0.993575 1.96097 -0.176498 -0.384831 0.905955
-17.843 -0.317094 2.0971 0.306128 -0.328636 0.893467
-15.4986 -0.363864 0.493885 0.583393 -0.493715 0.644901
-15.6134 -0.0813901 0.809979 0.585085 -0.417527 0.695231
-15.1438 -0.688982 -0.045371 0.562181 -0.501073 0.657935
-15.8123 -0.654763 0.499033 0.538291 -0.735098 0.412156
-16.1627 -0.678062 0.868481 0.518063 -0.670115 0.531561
-15.9649 -0.619686 0.739205 0.580001 -0.493325 0.648251
-15.7257 -0.840792 0.102565 0.464248 -0.714694 0.52315
-15.4791 -0.854972 0.00653896 0.272123 -0.646345 0.712872
-15.2452 -1.1199 -0.45792 0.444949 -0.793007 0.416125
-15.3439 -1.49711 -1.23071 0.387973 -0.887171 0.249809
-15.3091 -1.59077 -1.96753 0.355346 -0.928542 0.107414
-15.0445 -1.36623 -1.37313 0.43859 -0.879734 0.183595
-15.0284 -1.46831 -2.59817 0.614669 -0.788784 -0.00106066
-14.7071 -1.20013 -2.09204 0.657499 -0.750902 0.0619812
-14.8299 -1.2864 -2.99034 0.643867 -0.763675 -0.047287
-15.0584 -1.31971 -3.84754 0.590124 -0.784519 -0.190482
-15.3171 -1.62005 -2.71809 0.290796 -0.956638 0.0167783
-15.5189 -1.66479 -2.77634 0.0856616 -0.995564 0.038928
-15.7127 -1.67106 -2.86509 -0.141101 -0.988566 0.0531726
-16.0266 -1.59136 -2.80033 -0.394246 -0.915418 0.0811116
-16.4626 -1.35476 -2.66498 -0.530784 -0.844346 0.0731326
-16.3122 -1.40217 -2.30922 -0.497525 -0.862481 0.0927061
-16.7006 -1.19424 -2.92848 -0.554699 -0.826464 0.0962658
-17.2418 -0.738366 -2.8906 -0.802242 -0.595853 0.0369708
-17.6554 -0.31442 -3.18678 0.0925674 -0.912766 -0.397857
-17.8193 -0.504554 -2.88554 0.365835 -0.849256 -0.380697
-17.6258 -0.499967 -2.75042 0.198051 -0.905843 -0.374465
-18.3481 -0.423439 -3.44327 0.268385 -0.759125 -0.593042
-18.86 -0.995903 -2.86018 0.293489 -0.678791 -0.673132
-18.6593 -1.12857 -2.66224 0.338477 -0.706006 -0.622084
-19.0312 -1.93156 -1.09637 0.493116 -0.864593 -0.0965139
-18.4907 -1.51542 -0.476684 0.564412 -0.82259 0.0691742
-18.9842 -1.90973 0.249756 0.444121 -0.875358 -0.191061
-17.622 -1.11788 -0.0923322 0.426366 -0.884377 -0.189974
-17.8993 -1.17016 -0.724474 0.468463 -0.872239 -0.140505
-18.1403 -1.4993 0.373961 0.506151 -0.858462 -0.0827897
-18.4083 -1.61916 0.165467 0.433397 -0.868603 -0.240199
-18.9658 -1.90604 0.910598 0.189735 -0.910989 0.366197
-19.7545 -1.979 0.744484 -0.278565 -0.787529 0.549727
-20.0577 -1.89167 0.68643 -0.41726 -0.65883 0.625969
-20.4505 -1.71416 0.574845 -0.487309 -0.568561 0.662773
-19.5496 -1.61682 1.2888 -0.355413 -0.556205 0.75121
-20.1914 -1.63288 0.824514 -0.475721 -0.574129 0.666382
-19.3176 -1.93784 0.986108 -0.0551589 -0.854944 0.515779
-19.5414 -2.03748 0.672292 -0.112294 -0.91621 0.384641
-19.6485 -1.30971 1.4293 -0.486734 -0.332619 0.807747
-19.3367 -1.1849 1.65485 -0.373452 -0.339956 0.863113
-18.9597 -1.06145 1.84783 -0.301487 -0.348692 0.887423
-18.5607 -1.51061 1.5602 0.101913 -0.752103 0.651118
-18.8816 -1.54446 1.5441 0.000920451 -0.791914 0.610633
-18.7421 -1.78315 1.06967 0.407823 -0.898203 0.164045
-18.2687 -1.53098 1.1499 0.426693 -0.878731 0.213925
-16.6015 -0.209678 1.49718 0.526926 -0.349067 0.774921
-17.9952 -0.9517 1.91158 0.355215 -0.48314 0.800249
-17.7186 -1.09853 1.63239 0.362034 -0.681062 0.636464
-17.4159 -0.877661 1.66478 0.457446 -0.69726 0.55188
-17.2111 -0.806103 1.57567 0.481623 -0.686371 0.544917
-16.7117 -0.616581 1.36308 0.465728 -0.645056 0.605805
-16.9188 -0.756331 1.39683 0.446672 -0.748914 0.489502
-16.2446 -0.851686 0.712725 0.399902 -0.790312 0.464205
-16.6724 -0.873783 1.01764 0.253075 -0.896546 0.363537
-16.2154 -0.416547 1.10677 0.557033 -0.447518 0.699602
-16.8571 -0.997132 0.703832 0.223212 -0.948522 0.224683
-17.0777 -0.996778 1.05804 0.379894 -0.872307 0.307832
-17.1896 -1.06094 0.700497 0.179294 -0.983775 -0.0063359
-17.0384 -1.01844 0.419806 0.0612243 -0.989581 -0.13031
-15.9759 -0.983867 0.0468325 0.402436 -0.859349 0.31554
-16.3442 -0.984878 0.499004 0.286672 -0.920089 0.266936
-16.1465 -1.11276 -0.19645 -0.182486 -0.890422 0.416951
-15.8899 -1.01977 -0.0504357 -0.0754758 -0.791562 0.606411
-15.9511 -1.36399 -0.617135 -0.209594 -0.886313 0.41294
-15.7426 -1.23086 -0.296455 0.0804492 -0.715124 0.694353
-15.5744 -1.4403 -0.780699 -0.0478192 -0.956415 0.288067
-16.3357 -1.1605 -0.416536 -0.258817 -0.954528 0.147956
-16.1467 -1.31061 -0.740408 -0.420116 -0.902107 0.0985186
-16.301 -1.25356 -0.898202 -0.476409 -0.876922 0.0635793
-16.118 -1.38326 -1.23992 -0.484069 -0.864816 0.133304
-15.7396 -1.52132 -1.10373 -0.251979 -0.95847 0.13357
-15.9357 -1.48765 -1.30254 -0.41769 -0.901572 0.112704
-16.3856 -1.30109 -1.75517 -0.492696 -0.86357 0.107226
-16.7627 -1.06331 -2.08615 -0.626152 -0.776353 0.0721765
-17.0592 -0.984298 -3.15531 -0.575653 -0.810883 0.105321
-16.9854 -0.868176 -2.15967 -0.564762 -0.823003 0.0609016
-17.1712 -0.76482 -2.55478 -0.63686 -0.761822 0.118478
-16.9088 -0.922144 -1.78261 -0.591247 -0.806254 0.0194992
-17.1691 -0.749858 -1.89592 -0.266212 -0.958243 -0.104413
-17.2888 -0.743638 -1.69754 0.0606014 -0.994944 -0.0800854
-17.5088 -0.836782 -1.74631 0.454203 -0.875606 -0.16436
-17.2457 -0.71928 -2.31812 -0.582981 -0.81175 -0.0345646
-17.4223 -0.699034 -2.24753 0.165273 -0.899708 -0.403993
-17.514 -0.44688 -2.87259 -0.104481 -0.924178 -0.367393
-18.1472 -0.56772 -3.08553 0.354874 -0.821276 -0.446732
-18.7331 -0.754705 -3.07314 0.274365 -0.811071 -0.516612
-18.2549 -0.841486 -2.71191 0.38719 -0.701917 -0.597826
-18.2012 -1.22426 -1.96445 0.546681 -0.809354 -0.214675
-18.3817 -1.42094 -1.69095 0.529144 -0.808564 -0.257355
-21.184 -0.913723 -3.63265 -0.469753 -0.726625 -0.501346
-17.831 -1.13567 -1.35685 0.524032 -0.843599 -0.117181
-18.2904 -1.44589 -1.13119 0.553578 -0.832293 -0.0289733
-18.0565 -1.28237 -1.21827 0.548576 -0.834738 0.0477162
-18.4343 -1.50375 -0.281255 0.502123 -0.859209 -0.0981465
-17.5694 -0.999435 -0.819008 0.358934 -0.930498 -0.0730789
-17.4432 -0.991289 -0.447429 0.250616 -0.960525 -0.120762
-17.8175 -1.25801 -0.0109051 0.549673 -0.830915 -0.0862567
-17.2407 -1.01749 1.26526 0.424476 -0.874443 0.234884
-17.5235 -1.16162 1.25353 0.379205 -0.919873 0.100185
-17.1334 -0.992173 -0.172837 -0.208553 -0.977517 0.0310923
-16.6915 -1.09338 -0.0444174 -0.158604 -0.985489 0.0604648
-16.4784 -1.10805 0.0239124 0.0779445 -0.986954 0.140877
-16.5928 -1.04068 0.47016 0.00376502 -0.986819 0.161787
-16.4849 -1.15309 -0.60873 -0.131864 -0.987814 0.0826798
-16.7937 -1.08863 -0.548872 -0.242196 -0.965771 -0.0928817
-16.3903 -1.24362 -1.36263 -0.509063 -0.855917 0.0908907
-16.7985 -0.993964 -1.18365 -0.480668 -0.875289 -0.0531784
-17.101 -0.795566 -1.60616 -0.157599 -0.961055 -0.227016
-16.8912 -1.03707 -2.7226 -0.623591 -0.767879 0.146615
-16.8265 -1.0332 -2.40633 -0.613177 -0.777509 0.13962
-13.7205 9.73403 -4.10912 0.0032022 0.0564638 -0.9984
-16.6705 -1.07585 -1.40332 -0.558992 -0.823452 0.0972322
-16.9019 -0.917524 -1.4747 -0.582275 -0.812593 0.025461
-17.2103 -0.895013 -1.19472 0.00411919 -0.974388 -0.224837
-17.4612 -0.948449 -1.30958 0.332909 -0.903629 -0.269493
-17.7254 -1.07371 -0.842588 0.464221 -0.88568 0.00835823
-17.351 -0.960136 -0.947688 0.180151 -0.981623 -0.0629409
-17.0087 -0.939144 -1.0954 -0.193705 -0.952428 -0.235283
-17.1434 -1.00243 -0.594783 -0.198038 -0.980091 0.0142249
-17.2489 -0.979879 0.0665057 0.143717 -0.989513 0.0145015
-17.4152 -1.02123 0.0940173 0.250454 -0.959038 -0.132361
-17.7068 -1.22379 0.624123 0.544202 -0.837205 -0.0541372
-17.8859 -1.32616 0.535599 0.531186 -0.847246 0.00402888
-17.8081 -1.29897 0.939169 0.460491 -0.886605 -0.0433494
-17.521 -1.13153 0.618597 0.335098 -0.93467 -0.118746
-18.4656 -1.7005 0.646273 0.499582 -0.866174 -0.0126986
-18.1121 -1.44704 1.20442 0.469259 -0.882916 0.016004
-16.571 -1.12897 -0.966185 -0.330168 -0.930926 -0.156094
-17.9363 -0.873306 -2.41114 0.497198 -0.803629 -0.327069
-17.6078 -0.75155 -2.29864 0.402077 -0.788655 -0.465142
-17.3682 -0.612202 -2.5372 -0.126543 -0.924626 -0.35924
-17.7919 -0.970976 -1.9282 0.483066 -0.842441 -0.238621
-18.4353 -1.16981 -2.43681 0.438579 -0.73815 -0.512624
-18.1942 -1.2881 1.66705 0.369509 -0.797996 0.476093
-18.7606 -1.84547 0.496862 0.431303 -0.90216 -0.00925099
-18.1196 -1.28649 -0.53922 0.44998 -0.860935 -0.237297
-18.7493 -1.69175 -1.59235 0.520972 -0.837992 -0.162351
-15.5221 -1.5771 -1.42768 0.0468992 -0.985216 0.164775
-15.6273 -1.60935 -1.82828 -0.0113989 -0.997033 0.0761325
-15.5343 -1.2485 -0.397552 0.31115 -0.782918 0.538725
-15.2142 -1.48462 -3.56825 0.462573 -0.863005 -0.203097
-15.4717 -1.58135 -3.55398 0.317312 -0.926217 -0.203557
-15.0927 -1.49936 -2.06606 0.478104 -0.877995 0.0232847
-15.6611 -1.65293 -2.46418 -0.1581 -0.984531 0.0755138
-15.7788 -1.60187 -1.98149 -0.228353 -0.971012 0.0706373
-15.9818 -1.53139 -1.87736 -0.301355 -0.950552 0.0750761
-16.5244 -0.696403 1.1604 0.46001 -0.682707 0.567716
-19.2396 -1.59995 1.43472 -0.222502 -0.561688 0.796869
-19.5187 -0.717905 1.72411 -0.470542 -0.220804 0.854305
-20.3034 -0.263649 1.29753 -0.597497 -0.181171 0.781137
-19.7208 -0.514587 1.64861 -0.540797 -0.156465 0.826473
-19.9615 -2.06855 0.458003 -0.0750918 -0.926303 0.369221
-19.7845 -2.21192 0.0129754 0.0885443 -0.967805 0.235614
-21.2296 -1.4782 -2.60655 -0.568916 -0.719781 -0.397806
-15.0203 -1.13899 -4.23145 0.580656 -0.635451 -0.508961
-15.3274 -0.280562 0.414026 0.457188 -0.583328 0.671348
-17.1224 0.224913 1.94852 0.443568 -0.24338 0.862562
